ply
format ascii 1.0
element vertex 855
property double x
property double y
property double z
end_header
0.315397661733443 -0.073967746150625 -0.068686972158868
0.306999394564282 -0.072988324283513 -0.068694633424749
0.308218068789216 -0.073063532233714 -0.068849152644631
0.309241593935325 -0.073311065109115 -0.068801490704928
0.310790604388486 -0.073614044294874 -0.068872496070217
0.312339664837700 -0.073777572683349 -0.068754612992882
0.316875594508215 -0.073832713991652 -0.068936426552098
0.318439989119712 -0.073536704469117 -0.068820138510928
0.319546928970704 -0.073435349436686 -0.068876318383743
0.320653322437654 -0.073334037958732 -0.068932807270706
0.321843596837130 -0.073281821666467 -0.068785886302477
0.322968655167290 -0.072949245749509 -0.068891784488968
0.305024050610854 -0.072372928356719 -0.068974543574043
0.323900776282513 -0.072505820059077 -0.068765024342239
0.324778347044226 -0.072076380969446 -0.069381643965230
0.325217649121478 -0.072284409178258 -0.069103479743257
0.326341588605884 -0.071952176508887 -0.069209258754410
0.302048975866823 -0.071447635535757 -0.068459217308834
0.303039355796352 -0.071754614472117 -0.069255780455662
0.304110780184769 -0.071839447947384 -0.069182861887874
0.327766112504402 -0.071466842182828 -0.069089974998178
0.299937962983143 -0.070372097842083 -0.069292713988231
0.301031300413149 -0.070750001333453 -0.069213415214112
0.329067555649866 -0.070845251607142 -0.068893020325019
0.330405028520477 -0.070142377948094 -0.068918319164100
0.298930424811563 -0.069716689680555 -0.069080787687911
0.331742715769635 -0.069439393440865 -0.068943116208225
0.333078369560396 -0.068551891394722 -0.068815869654155
0.333755727086517 -0.068470727063082 -0.068553370135130
0.294846998869518 -0.067306971859965 -0.069393309181217
0.334631173015988 -0.067645307620813 -0.068933100405419
0.294061067177847 -0.066652415833464 -0.069397631846810
0.336163105725133 -0.066406212104984 -0.069075143761491
0.292870876733008 -0.065573812770335 -0.069301560288821
0.337620915783008 -0.065020667864794 -0.069128286719470
0.290898895868757 -0.064018908695159 -0.069414900530794
0.291773988279821 -0.064661766993394 -0.069047558444114
0.338324906626261 -0.064244244425580 -0.068868469529793
0.339421407054852 -0.063308797962604 -0.069249635208704
0.289477264180645 -0.062263146988058 -0.068493701740701
0.340398788910388 -0.062378631731827 -0.069102070395203
0.288811529397486 -0.061381570376285 -0.068996930043032
0.288181499822298 -0.060720111207720 -0.069108943044300
0.342068075595030 -0.060364121490735 -0.069105229704019
0.342951049063083 -0.059262228092479 -0.068781084544313
0.343156024718169 -0.058883610495638 -0.069440721780431
0.286280239018726 -0.058183639969930 -0.068658692104937
0.285790663267953 -0.057227124444944 -0.068974009461469
0.344031965419710 -0.057266940821374 -0.069060005084836
0.284918919391955 -0.055580452142572 -0.068639355143109
0.345009473864480 -0.055462742212134 -0.069009509769938
0.283770579771790 -0.053401703001959 -0.068928844937226
0.345998547924493 -0.053519881962896 -0.069201366939050
0.346466819061644 -0.052205573401307 -0.069213186818087
0.346805101343719 -0.051111642791123 -0.068701408666383
0.347330667811459 -0.049660426641907 -0.068805699485473
0.347698378221765 -0.048224046494067 -0.069324650606169
0.348013969419686 -0.047407754016198 -0.069023707212418
0.281602948145372 -0.046721234532920 -0.069091947122020
0.348133883034066 -0.046132154829284 -0.068691461280542
0.348238526557689 -0.045128266007243 -0.068560010964571
0.348378552812365 -0.043789341330733 -0.069376553348985
0.348483434569265 -0.042783153374323 -0.069244850356038
0.348588333299232 -0.041776856786863 -0.069113133977481
0.280926756136324 -0.040642424481031 -0.069070616834241
0.348741798297231 -0.040569654049685 -0.068968685055691
0.348719828043613 -0.039575159973470 -0.069028585312970
0.348630519304454 -0.038604686927335 -0.069383197736025
0.348418058439350 -0.037307153017068 -0.068586276809399
0.348330362591786 -0.036361097685084 -0.068770222899134
0.348242476427189 -0.035413289837128 -0.068954556108426
0.348154449662245 -0.034463725282425 -0.069139199311510
0.347908329142777 -0.033245352066110 -0.069097642980124
0.347554981726440 -0.032056807620049 -0.069230295975032
0.347382628802220 -0.031479590762855 -0.068541986476087
0.347114589047701 -0.030576807309262 -0.069018647286383
0.282617015293104 -0.029120847731830 -0.068644302678316
0.346759538553847 -0.029382641001178 -0.069151836576460
0.346536378706864 -0.028088419219574 -0.069283635122808
0.346231632500338 -0.027609536570145 -0.068594355432298
0.283662804518573 -0.026032145590132 -0.068886479398491
0.345654119672712 -0.026469689793843 -0.069084877035921
0.344622267543214 -0.024513605530198 -0.068852131046763
0.344018400085478 -0.023367202264856 -0.069377806852957
0.344736733333414 -0.023827688624656 -0.068557430321516
0.343730585757038 -0.022822681026072 -0.068871499117161
0.342720520029384 -0.021153355040050 -0.069074787293488
0.343657921079037 -0.021773561448615 -0.068822845507329
0.342095119415768 -0.020383196230612 -0.068622721675706
0.340788483813020 -0.018770798038887 -0.069285840233645
0.339950585285896 -0.017738930615166 -0.068680661753853
0.340543291855935 -0.017646759554493 -0.068942411278716
0.337363152186254 -0.015164112762986 -0.069404499877468
0.336485536359890 -0.014435780368898 -0.069328521058228
0.337530862702561 -0.014537782013510 -0.068528545201986
0.335018130483469 -0.013217973611954 -0.069201469603756
0.335962674305760 -0.013616752198239 -0.069355539569225
0.334134422322573 -0.012484590548208 -0.069124968177460
0.333047507890255 -0.011788911326364 -0.069357176046935
0.330307757952102 -0.010306019153426 -0.068720972701956
0.328641728321999 -0.009402626571342 -0.069328466221954
0.329476288490938 -0.009855157491034 -0.069024148006338
0.324532167822567 -0.007961243558043 -0.068751926972283
0.326146449368619 -0.008459756388473 -0.069229279881152
0.328077574721678 -0.008358621233985 -0.069411573312312
0.304324993701931 -0.007428480905118 -0.068918251402444
0.321650895502744 -0.007069540187443 -0.069177965051802
0.318243198530629 -0.006690846248131 -0.069365192215572
0.320909145879160 -0.006288889305199 -0.069190117963220
0.313570859942508 -0.073908067750945 -0.068289496484246
0.314794910243860 -0.074023999247861 -0.067843309622213
0.315969486604878 -0.073916851197206 -0.067671936038410
0.307979461680857 -0.073295118524695 -0.067625562616098
0.308610688919470 -0.073384968855859 -0.068292247001683
0.309850687344742 -0.073516429601043 -0.067826972268306
0.310273198210739 -0.073280607593481 -0.068375976290988
0.311506048362896 -0.073550744991136 -0.068099014237891
0.312634476872914 -0.073670183511158 -0.067749112401862
0.313349713356680 -0.073605677709586 -0.067667327056725
0.315408231359994 -0.073663272752137 -0.067600637876021
0.316447037378891 -0.073567474861531 -0.067885155047799
0.317616631856261 -0.073612822633098 -0.068255937608033
0.318917470873305 -0.073647507907376 -0.068169843485284
0.320086423725211 -0.073541156673171 -0.067998105992635
0.321253231673885 -0.073435005902818 -0.067826670235454
0.322380588217016 -0.073124058369379 -0.067906642644342
0.304035125670750 -0.072066320031473 -0.068180079452908
0.305573579609114 -0.072420472167931 -0.068157336364539
0.306156942152795 -0.072477259410523 -0.067644186296397
0.322641267360344 -0.072712353279513 -0.067685765817001
0.323503637992198 -0.072792074728424 -0.068012509796733
0.324626314839289 -0.072460194196404 -0.068118342505353
0.325748621731762 -0.072128418049925 -0.068224142615877
0.301013844757184 -0.070959371492547 -0.067884130488401
0.302058027420771 -0.071205244417000 -0.068103437835823
0.303376347054688 -0.071862071563199 -0.067650859658796
0.325743413143426 -0.071793660487509 -0.067529399231667
0.326814715309509 -0.071474863311793 -0.068375597382019
0.327134145235049 -0.071719344144520 -0.067891692390587
0.328491284165174 -0.071149033228074 -0.067756157854335
0.300014803198484 -0.070200462823410 -0.067965807819237
0.328883640396671 -0.070573910977005 -0.068132527671045
0.329573750231292 -0.070579857160785 -0.068151319291359
0.297893137543437 -0.069154851458796 -0.068219985378091
0.330979223993321 -0.069471047336363 -0.068397814184877
0.331161274816107 -0.069745879980185 -0.067806267225307
0.332245298106057 -0.069175893585712 -0.068201420305287
0.295798188737189 -0.067986845430982 -0.067852302932189
0.296750614254197 -0.068642542840017 -0.067872182898063
0.333824446723684 -0.068298376144230 -0.067910158875088
0.294903597219133 -0.067269153033625 -0.067531907764254
0.334076532062737 -0.067686019120694 -0.067836527380033
0.334893312878285 -0.067548071330143 -0.068246109161624
0.335352854055344 -0.067062129855597 -0.068051305608693
0.294102770132042 -0.066691124266561 -0.067487128007497
0.336027518999991 -0.066628182496059 -0.067939752356050
0.292924201303000 -0.065709598809604 -0.067490230743257
0.337008816908871 -0.065759531670294 -0.067844805104653
0.337533554998732 -0.065406704734920 -0.067532923778619
0.290951343976900 -0.064066585145397 -0.067495394602895
0.291741955195865 -0.064725000677457 -0.067493352664748
0.338620288171082 -0.064432382330147 -0.067893469380397
0.290055610590832 -0.063038006768557 -0.067934351641306
0.290850106270789 -0.063809227360207 -0.068171221511558
0.339359839415668 -0.063630213124412 -0.067974547653488
0.341047496369213 -0.061589961731578 -0.067943580381396
0.341401717679427 -0.060695371531892 -0.067606687214584
0.342267262376608 -0.060131311139707 -0.067904985642529
0.287311624023313 -0.059648977625323 -0.067726287739253
0.342602196468367 -0.059488091236265 -0.068390094183656
0.343205659616323 -0.058933033913443 -0.068186025010874
0.343636704434532 -0.058139938293785 -0.068077111438133
0.343838262440056 -0.057673314463122 -0.068038301712580
0.344657637721774 -0.056224388717656 -0.067872536443858
0.345364247438846 -0.054961917742388 -0.067640065549722
0.345730534635790 -0.054171162457363 -0.067944678349124
0.283827334374342 -0.053496231442417 -0.067997703968515
0.346465800068049 -0.052449608047070 -0.067873674232884
0.346697223775925 -0.051459933575326 -0.067880375119186
0.346944242868303 -0.050769047374263 -0.068168571724962
0.347142702776346 -0.050019888242628 -0.068190652514301
0.347534223835985 -0.048754047327052 -0.068091151876106
0.347925537166336 -0.047488861599917 -0.067990980785936
0.348099107099694 -0.046461550534597 -0.067746881091977
0.348310305886578 -0.045460043006383 -0.068061027616600
0.348343183222081 -0.044124263291855 -0.068428543639061
0.348531405408750 -0.043352437383132 -0.068061883915819
0.348552536221626 -0.042115952505159 -0.068165566222319
0.348657224892182 -0.041111633909257 -0.068034048883226
0.348680257885727 -0.040134829786878 -0.068036317431577
0.348593000114560 -0.039194018946263 -0.068219338226438
0.348505608659653 -0.038251456733950 -0.068402638635847
0.348447681522827 -0.037634586529833 -0.067532236508105
0.348360210923644 -0.036691057909811 -0.067714802828316
0.348272572699853 -0.035745787614568 -0.067897701211132
0.348184780737580 -0.034798770723114 -0.068080939435698
0.348001962117418 -0.033564261424721 -0.067936262860557
0.347763035169797 -0.032224243972729 -0.068175190931002
0.347210589257849 -0.030903427707649 -0.067854940216355
0.346856608386891 -0.029712839937762 -0.067986282496793
0.346725580856047 -0.028731895650600 -0.067908839250962
0.345818015235790 -0.026335044183880 -0.068050150265218
0.345079771959359 -0.025383049633401 -0.068077053557959
0.344047759761471 -0.023426641127728 -0.067842711252023
0.343443010130731 -0.022278600164016 -0.068365586191883
0.343155682065769 -0.021734959849341 -0.067860073778663
0.341469378874722 -0.019612620956908 -0.068170417818415
0.340843379928446 -0.018841719006721 -0.067717911877560
0.289829565244379 -0.016713824421005 -0.068360873856306
0.339112125107854 -0.016706398571095 -0.068075119910037
0.339682835562726 -0.016587843124924 -0.068044022544421
0.338035101818107 -0.015724766547095 -0.067840814506778
0.338738435391484 -0.015544588822696 -0.067601111187216
0.291871181784897 -0.014639798250402 -0.068019387548340
0.335994955766489 -0.014031657991643 -0.067659296224645
0.336870737695954 -0.014758459498014 -0.067737216281471
0.334823556512306 -0.013059516558267 -0.067555081667547
0.335409766544296 -0.013546004542243 -0.067607230422033
0.333919692000521 -0.012332556940611 -0.067511163047552
0.331961493629284 -0.011202756827020 -0.068117991820784
0.332783807920748 -0.011648654544875 -0.067818149837977
0.331136140537790 -0.010755216820815 -0.068418943932740
0.328388091728199 -0.009267831316557 -0.067779384125041
0.329220882363198 -0.009719402733832 -0.067478759380569
0.325778777733309 -0.008348124787505 -0.067853102705763
0.327385752938018 -0.008844398971879 -0.068330036236841
0.308449662818602 -0.006945101421348 -0.068109691678411
0.321106184535354 -0.006991159177041 -0.068062455206411
0.322913679179800 -0.007461419391150 -0.068273283593564
0.317614819575285 -0.006626709374033 -0.068367811983892
0.313858144025006 -0.073940537061591 -0.066786828796952
0.315367277934809 -0.073972814605925 -0.066831467931624
0.306994420360193 -0.072989729370325 -0.066835827922450
0.309225329923094 -0.073451499312202 -0.067131335269068
0.310773814790507 -0.073614942932105 -0.067016297207664
0.312317923810273 -0.073777946325830 -0.066901282237388
0.314373575468919 -0.073713863336157 -0.067431479721058
0.316840456996278 -0.073838186551006 -0.067080795355248
0.318010383371815 -0.073731742993926 -0.066910190644419
0.319480452737049 -0.073597422562322 -0.067158662694129
0.320646474420657 -0.073491345514592 -0.066988194526451
0.321685906603395 -0.073163613220008 -0.066883096792894
0.322915751535070 -0.072966832807018 -0.067030393213936
0.305025433427710 -0.072376314105808 -0.067110465213919
0.307175950215128 -0.072794896846704 -0.066877922107047
0.324036799650608 -0.072635436782811 -0.067136228965282
0.324675293989761 -0.072111516304511 -0.066685690421496
0.325569894916948 -0.072182474951846 -0.067050132447458
0.302059981646978 -0.071454078695466 -0.066593155205330
0.302900596437935 -0.071591414681100 -0.067228871040383
0.304105725120839 -0.071843609576343 -0.066570352140997
0.327846666354251 -0.071305303082702 -0.066621595572665
0.328997257530661 -0.070883758126420 -0.067017407456196
0.299956808307239 -0.070385795835725 -0.067412203380698
0.301040278499460 -0.070760985997566 -0.066596124769592
0.329972087207618 -0.070187191369334 -0.067147593586579
0.330582097559542 -0.070051199442640 -0.066673826950210
0.297839829981701 -0.069237056918950 -0.066467031918122
0.298950748906276 -0.069732496208301 -0.066831725367328
0.331810354911932 -0.069220500695079 -0.067107618645587
0.296964472479755 -0.068545307586300 -0.066851164522177
0.332996493628733 -0.068782059580665 -0.067092813079064
0.334305502789141 -0.067909634529021 -0.067324221865586
0.334785674575702 -0.067521611745206 -0.066739355137414
0.293914573362614 -0.066359449691932 -0.067067181922544
0.335096189405296 -0.066860866329556 -0.067373388468581
0.336093264227118 -0.066258898328623 -0.067041587846602
0.292909838571197 -0.065525623754689 -0.066556479464611
0.337130563841600 -0.065214584879211 -0.066449321968168
0.338181245033966 -0.064828242288043 -0.067028855401265
0.289189211379186 -0.061971147710660 -0.066560114543330
0.340032396943023 -0.062809208689734 -0.066788182440065
0.340297878375874 -0.062023577540002 -0.066840543442434
0.341160041294301 -0.061466409892198 -0.066729107011741
0.287859044940590 -0.060212499384915 -0.066821213906128
0.288253008984424 -0.060813276073601 -0.067141581968161
0.341837140679989 -0.060646234517833 -0.067236827715573
0.286838407296844 -0.058951522195011 -0.067347775260983
0.342645267422198 -0.059671593510285 -0.066567856832483
0.286392401059102 -0.058403532625628 -0.066550133236270
0.343338308954919 -0.058226124642572 -0.067008444795159
0.285147075628324 -0.056030702559715 -0.066677028605638
0.344431735856636 -0.056392405204964 -0.066947137624174
0.345460058541392 -0.054429067231727 -0.066735403175495
0.283893221908349 -0.053641611731614 -0.066804783415187
0.346187810789081 -0.053305805938545 -0.067087317985673
0.346589713299109 -0.051807042215977 -0.067062155801298
0.346980364719509 -0.050544014742354 -0.066963050836323
0.347370826575671 -0.049281627254993 -0.066863247649023
0.347692663106010 -0.048739549231669 -0.066844175538013
0.281910430321213 -0.047763576516632 -0.066942663700004
0.347845012885104 -0.047746794583772 -0.066950962836964
0.348111882915795 -0.046584262222214 -0.066742125950045
0.348168656435557 -0.045789856799102 -0.066675194722799
0.348290420264766 -0.044623909297378 -0.067014292735291
0.348412411824165 -0.043455792170869 -0.067353160250597
0.348516875402215 -0.042453658815989 -0.067221878578942
0.348717226656414 -0.041578975455141 -0.067118336941244
0.348709270269940 -0.040454700022168 -0.066986353808810
0.348622163395437 -0.039516414407935 -0.067168090936081
0.348506096417482 -0.038268419167182 -0.066916558316840
0.348346238780632 -0.036548090818724 -0.066755048837440
0.348214972495641 -0.035132234182641 -0.067027636219883
0.348127241989439 -0.034186007590225 -0.067209830361460
0.347948317348741 -0.032854775218949 -0.066808663811375
0.347391931918637 -0.031515790055043 -0.067039451918642
0.347038866925624 -0.030328323716730 -0.067169160819767
0.346599270261596 -0.028850985675940 -0.066956419507924
0.346230468156961 -0.027661800248305 -0.067109318251039
0.345248652756564 -0.025706430589484 -0.066804254638763
0.344506353251346 -0.024298167861912 -0.067070864113381
0.343617450269129 -0.022612526682796 -0.067086690935580
0.343049918238627 -0.021643308118412 -0.067048466238351
0.342566836162366 -0.020559224456630 -0.066963334241839
0.341521882181208 -0.019680557574212 -0.066611559202189
0.340425872621451 -0.018327557899580 -0.067416091054184
0.339799326855231 -0.017555991621399 -0.066963213300024
0.331700893162754 -0.011064167364779 -0.066583514488429
0.333693719583814 -0.011413437082672 -0.067119046008369
0.330050593039327 -0.010169315491153 -0.067179250792016
0.330877275415879 -0.010617560233349 -0.066880817314403
0.331772447864145 -0.010371998230848 -0.066466065016267
0.325412753757041 -0.008236974535235 -0.066482909037755
0.327016707599774 -0.008732307424859 -0.066960544382357
0.320478381337203 -0.006927103271283 -0.067072911268555
0.322552165778998 -0.007351688236865 -0.066895600662425
0.324167595733249 -0.007850559999702 -0.067374955505367
0.310898870963133 -0.006719349785665 -0.066575656814329
0.316987887608937 -0.006562714052710 -0.067372648045178
0.314766510975467 -0.074028948680311 -0.065992570544300
0.315937323686549 -0.073922058015964 -0.065823544627674
0.307971357930144 -0.073295546717116 -0.065775333790617
0.308397498305806 -0.073226437035445 -0.066332865887999
0.309527167311639 -0.073345996176313 -0.065985341461774
0.310654298773082 -0.073465290937902 -0.065638615542691
0.311477186374350 -0.073551675555384 -0.065867232210490
0.312920307288732 -0.073843126594650 -0.065749788279399
0.317106063056525 -0.073815712422531 -0.065654399128638
0.317419745408045 -0.073482644877114 -0.065529846932946
0.318665844409088 -0.073520333765205 -0.066066716794216
0.319767030731783 -0.073419518996146 -0.066123304614991
0.320531130175512 -0.073195739244649 -0.066378002879233
0.321204217465334 -0.073441724657430 -0.065982463178962
0.322329664433836 -0.073141055219170 -0.066051297371511
0.304039694431160 -0.072070707639678 -0.066319361861488
0.305567821831930 -0.072423016812893 -0.065926860741593
0.323529718792515 -0.072619281802737 -0.066000802316563
0.324568152795006 -0.072479340813395 -0.066262915454434
0.326214403770219 -0.071993645842119 -0.065498305934950
0.301029131493068 -0.070971104692515 -0.066015127519950
0.302062331517809 -0.071212154786603 -0.065501163819821
0.303383040842040 -0.071867126150857 -0.065792370227065
0.326885111695499 -0.071626806139717 -0.065864121850651
0.328423011824333 -0.071186466136307 -0.065887919061093
0.299975530834651 -0.070399381188150 -0.065543920098371
0.329753530233061 -0.070487244067640 -0.065913222901305
0.297995143969153 -0.069108609794531 -0.065486915093237
0.330963757252684 -0.069667327632977 -0.065789074564593
0.332461689637813 -0.069108394131567 -0.066098050075115
0.295832389595528 -0.068015693548785 -0.065601509106432
0.296426408534002 -0.068470053192566 -0.065836041070902
0.297133331617527 -0.068853692998313 -0.066151605559549
0.332930644633828 -0.068448169292665 -0.065903106618329
0.333981490817784 -0.068172602922181 -0.065724912628091
0.294924828858377 -0.067379700974104 -0.065589420024501
0.335264969927089 -0.067134295921059 -0.066155554265334
0.293361745761436 -0.066077944912638 -0.065589127436254
0.294144193271927 -0.066729566669471 -0.065589285742568
0.335743391816775 -0.066747688333187 -0.065572821095019
0.292577470762424 -0.065424791605488 -0.065588985644089
0.337028719434727 -0.065707870298648 -0.066003642701021
0.291003444934995 -0.064113952781635 -0.065588646028183
0.291849156706363 -0.064731708465656 -0.065817801295654
0.338583562828925 -0.064204039826621 -0.065818012528972
0.290513071505471 -0.063492498661977 -0.065760125359062
0.339196996159842 -0.063348212627153 -0.066076489708428
0.289894834122360 -0.062727637582829 -0.065771029751442
0.340240086082982 -0.062575713935321 -0.065752062901188
0.288877853350183 -0.061471199536977 -0.066295632104244
0.340893417936405 -0.061779752134311 -0.066115743063009
0.287386090066889 -0.059745781971857 -0.065765091645997
0.343054283905543 -0.059141485671276 -0.065980293159354
0.343211397504818 -0.058782108587413 -0.066436878553272
0.285874488150223 -0.057396078155837 -0.066131430218035
0.343913574479982 -0.057557459807051 -0.066036595068308
0.344268919475400 -0.056680881669666 -0.066004204607656
0.284896753485119 -0.055538084617551 -0.065647795603828
0.344988512934155 -0.055576673513550 -0.066038028354670
0.345586966745309 -0.054403446918902 -0.065503176731200
0.346411682751364 -0.052479486199422 -0.065592549298530
0.282899325383531 -0.051108615581309 -0.066355998779533
0.346909182089129 -0.051259295162455 -0.066020626253957
0.347274617820978 -0.049704238655684 -0.066226650669742
0.347706604437684 -0.048195725165894 -0.066356230556674
0.348336151404412 -0.046207137881227 -0.065908470713769
0.348272094731358 -0.045299222102997 -0.066033754637303
0.348377120017419 -0.043790038140616 -0.066413111461008
0.348481371643731 -0.042789976133413 -0.066282048447252
0.348585636410812 -0.041789800232863 -0.066150968423956
0.348689894958999 -0.040789535995087 -0.066019900707793
0.348607723795258 -0.039368530720704 -0.066212033942445
0.348419520436553 -0.037346342020448 -0.065618732845732
0.348332355901487 -0.036406104855308 -0.065798845996758
0.348245022547198 -0.035464136368887 -0.065979292756709
0.348157529232897 -0.034520436731840 -0.066160078827125
0.281448278162791 -0.033091042139841 -0.065843199469864
0.348151548360277 -0.033791908053432 -0.066170971111939
0.347705089470156 -0.032572119800343 -0.065992932669364
0.347401093223716 -0.031551500685958 -0.065545895419226
0.347134745432090 -0.030654435087269 -0.066014440118202
0.346930689994205 -0.029609425186728 -0.066137522310120
0.346428118833984 -0.028277817566910 -0.066271544952767
0.346257288897441 -0.027705698240976 -0.065587901711257
0.345896971112465 -0.026641144154047 -0.065909952734453
0.344855740920692 -0.024664663094882 -0.065840805343909
0.344076878560511 -0.023485594356085 -0.066317214885687
0.343965425917924 -0.022822614468376 -0.065998355908538
0.342816993976947 -0.021278720863831 -0.065962785768083
0.342195654970409 -0.020513572506014 -0.065512904860870
0.341105933902878 -0.019168330869242 -0.066310626731976
0.342127219275055 -0.019609933688118 -0.065970407193514
0.340481729416425 -0.018399655876751 -0.065859062959651
0.338937152231992 -0.016532474485213 -0.066400110982198
0.290734767008161 -0.015627169550129 -0.066393709685427
0.337833156241740 -0.015560150843299 -0.066210996486081
0.336671866280161 -0.014596410906028 -0.066104915463730
0.335506592367502 -0.013629360725419 -0.065998464356315
0.334044491268642 -0.012415971812208 -0.065864902433351
0.334800301299958 -0.012658720415114 -0.065890964080891
0.332930286426154 -0.011730809929577 -0.066139740477823
0.328551311580466 -0.009359065708250 -0.066090092461770
0.329825303861516 -0.009683162149247 -0.065729877621127
0.326649249402068 -0.008620706411053 -0.065597071378697
0.322192258431774 -0.007242437603162 -0.065523946438864
0.323804596951255 -0.007740356304479 -0.066004063647766
0.324615801420928 -0.007285669357388 -0.066351801491443
0.316362344055688 -0.006498864304283 -0.066379771823654
0.319852104205316 -0.006863164579203 -0.066085412798808
0.320539991830705 -0.006256250875123 -0.066234751401741
0.313831653258873 -0.073940381987054 -0.064948173950388
0.315337098818580 -0.073977905557824 -0.064987806824498
0.306989480392848 -0.072991130858674 -0.064988934493110
0.308902362721502 -0.073420507115156 -0.064938818222596
0.310445534128527 -0.073583485364920 -0.064826737252130
0.311984803442400 -0.073745970420132 -0.064715309962617
0.312282342365951 -0.073498157846268 -0.065291703954922
0.313302359976126 -0.073605929187490 -0.065057790886265
0.314321564548780 -0.073713627558621 -0.064824062223351
0.315350735509747 -0.073673441306449 -0.064965829970787
0.316444872955246 -0.073724811464965 -0.065033716419958
0.317971754615282 -0.073737517944043 -0.065068696993085
0.319135829471417 -0.073631612164796 -0.064900628352634
0.320599463464742 -0.073497888858724 -0.065148761458509
0.321745366184054 -0.073314673711664 -0.065075286401661
0.322863188785520 -0.072984304772829 -0.065181029082539
0.304044232314781 -0.072075071996168 -0.064470594007619
0.305026809124822 -0.072379703776434 -0.065258343434738
0.306142589061363 -0.072478524288573 -0.065045582200670
0.322548546988007 -0.072744402835563 -0.065005741192150
0.323980627195860 -0.072653966895416 -0.065286835374733
0.325097697486875 -0.072323752899389 -0.065392585108214
0.325625454160941 -0.072168703990577 -0.064525191117174
0.302070921376561 -0.071460484184660 -0.064739094441009
0.302904819718893 -0.071597057804528 -0.065002911260639
0.325636164505162 -0.071830020126839 -0.064850750480213
0.326740178522254 -0.071839177784758 -0.064630883500327
0.327850996855490 -0.071488037954197 -0.064762773362767
0.300028397951798 -0.070213925125129 -0.065359917243719
0.328757835330005 -0.070644238641385 -0.065377425909588
0.329178954884000 -0.070790124070170 -0.064788120449156
0.330740059424023 -0.070060379753376 -0.065014960106867
0.297865441681735 -0.069254399163484 -0.064600153373484
0.298920899429820 -0.069827110523564 -0.065072228124206
0.331834852239036 -0.069394390881394 -0.064838226681016
0.333612362363215 -0.068460800959930 -0.065053603546612
0.294958130127821 -0.067232350142738 -0.064951049791174
0.333918583119732 -0.067817603936834 -0.064966976753990
0.334845408879702 -0.067299807589154 -0.064728411470262
0.336034862670937 -0.066587512871509 -0.064827323254311
0.337981617431181 -0.064937851064080 -0.064839330061537
0.339648184361152 -0.063283772872936 -0.064934300581174
0.289256803171439 -0.062059423449142 -0.064613703235051
0.288324019147803 -0.060905787621989 -0.065187808922881
0.341409168365700 -0.060923066117053 -0.064970763212707
0.342191711555807 -0.059961192887941 -0.065043636030054
0.286913816365340 -0.059052246169805 -0.064662325004953
0.342414131008768 -0.059715023176961 -0.064960017074992
0.286503698586908 -0.058621743159920 -0.064457726121609
0.285263538247558 -0.056258773233721 -0.064577008630268
0.284014914118785 -0.053879667927659 -0.064697104156686
0.283920742566444 -0.053683390695441 -0.065164963886688
0.347582064121431 -0.049092166667146 -0.064689191778088
0.347974145658304 -0.047831208204507 -0.065097633848824
0.348458740473407 -0.044281846645653 -0.065311051086986
0.348613369738707 -0.042810510607600 -0.064651198505959
0.348593380375553 -0.039221633496193 -0.065259497719758
0.348506525011606 -0.038284848034961 -0.065438959005170
0.348448969621169 -0.037671681254040 -0.064578042697966
0.348418838298835 -0.036356467248837 -0.064811588149757
0.348280595309233 -0.035356940244643 -0.065092682419321
0.348015594262952 -0.033623410913060 -0.064954390777051
0.347666527872851 -0.032445486426911 -0.065078959132445
0.347096905097171 -0.030530213490367 -0.065099288280264
0.347505423385293 -0.030835446233341 -0.064561706023454
0.346792962551871 -0.029509808131271 -0.064652351045155
0.346525584933585 -0.028609308731229 -0.065119327342361
0.346010689757675 -0.027155623591909 -0.065027630287500
0.345725766779215 -0.026616728471404 -0.064529824796571
0.345131275510131 -0.025488179568957 -0.065039618318979
0.344105866573999 -0.023544287168407 -0.064801456375297
0.343505077468210 -0.022403778582882 -0.065313877298679
0.343219518825445 -0.021863523160897 -0.064812806585108
0.286546716075062 -0.020726179467047 -0.065115323420500
0.341781259250763 -0.020003259324680 -0.065212851949638
0.341366728954048 -0.019492777506431 -0.064912711374281
0.341110391590309 -0.018767761836007 -0.064846876714105
0.339649041146720 -0.017374203946571 -0.065256613087950
0.338761438173722 -0.016360017731919 -0.064738146350976
0.337632390677866 -0.015396498991358 -0.064590731739478
0.336184122504914 -0.014194604242334 -0.064455008590888
0.336176398096254 -0.013420926317275 -0.064945003143349
0.295774817358224 -0.011482855102033 -0.065002078491693
0.332668541828594 -0.011591570495598 -0.064618729183807
0.331030722196065 -0.010703477958958 -0.065204012895858
0.325048308062098 -0.008126314645525 -0.065118728519033
0.327877426174682 -0.008651418323750 -0.065095576771933
0.323443214223752 -0.007630638537635 -0.064639136115323
0.313319481709871 -0.006496240568894 -0.065059525131912
0.315738229773012 -0.006435155767323 -0.065389100492020
0.319227242457875 -0.006799372019581 -0.065100111439804
0.314738293801354 -0.074033858256479 -0.064153701471417
0.315905364496888 -0.073927203788202 -0.063987018062837
0.307963306902523 -0.073295963326136 -0.063936945784399
0.308170377714562 -0.073069090670256 -0.063632434418140
0.309823267382739 -0.073518853355606 -0.064137283564725
0.311051156481120 -0.073649002407544 -0.063682890614931
0.312896839868732 -0.073843292267697 -0.063916484828321
0.317070397060902 -0.073821206515514 -0.063820077034123
0.318233299050700 -0.073715408238942 -0.063653441988122
0.319706442517808 -0.073428606705518 -0.063895457250917
0.320450165385653 -0.073208031998271 -0.063754297288346
0.321322707654345 -0.073253922117949 -0.064159783125952
0.322279073181708 -0.073157947948501 -0.064207909917818
0.305681567079600 -0.072585634438982 -0.063941408221093
0.307156984964003 -0.072794721088579 -0.064286210948894
0.323394900573021 -0.072828079324527 -0.064313716306228
0.324673770092787 -0.072283547362548 -0.064001129030260
0.326151423765592 -0.072014186874488 -0.063660729423019
0.301044317225132 -0.070982757836009 -0.064158215278914
0.303062603358711 -0.071770720014594 -0.063683610948579
0.304100716135510 -0.071847725042991 -0.063981625589081
0.327460044644524 -0.071455812396551 -0.063822552640936
0.328723839992989 -0.071122516749944 -0.064165409427733
0.299994134835220 -0.070412914642389 -0.063687683663940
0.301049175635698 -0.070771848091696 -0.064002678408055
0.329833780591408 -0.070263519177925 -0.063916347454053
0.299020931366855 -0.069669271328730 -0.064129091000656
0.331007759810691 -0.069829665068514 -0.064081990154573
0.331816682882421 -0.069036484615067 -0.064402071951959
0.332582791118308 -0.069002257742547 -0.063742302729281
0.295739573851222 -0.068062143336180 -0.063708602489956
0.296724272973980 -0.068528070244790 -0.064112853625605
0.297161245807478 -0.068872272607040 -0.064285212681792
0.333898563195709 -0.068240763235898 -0.063845218275939
0.294963356828394 -0.067415705145243 -0.063706284064193
0.335247114209704 -0.066922238935204 -0.064214311075261
0.293956145326296 -0.066400787800300 -0.064444190226838
0.294185340375249 -0.066767758538526 -0.063703969821909
0.335800432611949 -0.066498665456652 -0.063871985477989
0.292985348740508 -0.065681794958957 -0.063819365244295
0.336968196251458 -0.065572143884463 -0.063911593445319
0.337811631182421 -0.065183860108087 -0.064249302409382
0.291055193274941 -0.064160985714876 -0.063694564037133
0.291840450095753 -0.064814920550861 -0.063696958669154
0.338940024357768 -0.064118710655800 -0.064067478949113
0.290184491149901 -0.063206758999822 -0.064042725058593
0.340093467667000 -0.062272492881117 -0.063765917674929
0.288943554124786 -0.061559990691745 -0.063619735944719
0.340841729076081 -0.061837964708878 -0.064079018739422
0.287929593766622 -0.060307263925079 -0.064140481085948
0.287460041016215 -0.059841906700255 -0.063817425258228
0.343207871495173 -0.058892620652422 -0.064157557158126
0.343212145962583 -0.058363265690748 -0.063465987247950
0.343853096318319 -0.057740288936133 -0.063959323429665
0.344281589083642 -0.056952019917951 -0.063849370800310
0.285435852385425 -0.056521083987244 -0.063702781691972
0.344710411787780 -0.056163162432145 -0.063739323728070
0.345139563543825 -0.055373689770400 -0.063629202115265
0.345569034421491 -0.054583639236151 -0.063518988639141
0.346426977622432 -0.052434051495750 -0.063780809672311
0.346742004688867 -0.051414916552508 -0.063668126928879
0.347191398783930 -0.050348594215520 -0.064282218625683
0.282385152739486 -0.049387263063783 -0.064087094844343
0.282026062540610 -0.048169086462639 -0.063687466837381
0.347623846843945 -0.048199814791262 -0.063903999051425
0.348608726408640 -0.042074761797187 -0.064111048815326
0.348823854955013 -0.040804114694169 -0.063672595839720
0.348656733806636 -0.037960601384846 -0.063834501761844
0.348566279761958 -0.036970693006796 -0.064349961362318
0.348217661275588 -0.035184610901518 -0.064075335902235
0.281352028790021 -0.034000008217908 -0.063854413564398
0.348130465914183 -0.034244207738244 -0.064253700729032
0.348023575982375 -0.033652189458609 -0.063474981565115
0.347760173040720 -0.032764072407299 -0.063936715925581
0.347410288464365 -0.031587255158845 -0.064061836061032
0.282374889646313 -0.029899571244748 -0.063816156935404
0.347059429416895 -0.030407206965698 -0.064186980067500
0.346622546655072 -0.028939054721125 -0.063973164271633
0.346425175249446 -0.027743699889390 -0.064046124808938
0.345441154663546 -0.026078244053484 -0.064032273670550
0.345156760447278 -0.025540199598232 -0.063535139955147
0.344561429883324 -0.024410031976367 -0.064042182251948
0.344617624962218 -0.023619465603367 -0.063564142836555
0.285456592709653 -0.022734007736832 -0.063971096599086
0.343535842142902 -0.022465827917396 -0.063802486803818
0.342864770506988 -0.021340822319709 -0.064421864107209
0.343548194884751 -0.021583180279861 -0.063824952827540
0.342245414885911 -0.020578112117890 -0.063973039276350
0.341625804691903 -0.019815080501886 -0.063524015985856
0.340537278462629 -0.018471318629287 -0.064312106472701
0.340080847356219 -0.017636579362424 -0.063972610582287
0.337071355401871 -0.014549611621360 -0.064269371217048
0.335020936185263 -0.013229297675514 -0.064346016087030
0.335603021086717 -0.013712362671559 -0.064400558640246
0.334145805708187 -0.012503039663203 -0.064263990887617
0.329540382411746 -0.009898075735466 -0.064120302590548
0.330363604546599 -0.010344444592425 -0.063829064129052
0.331183823265357 -0.010789187434733 -0.063538890065222
0.328714146558519 -0.009450054723026 -0.064412593031598
0.324685451844010 -0.008016140172233 -0.063760495220853
0.326283384513515 -0.008509596075962 -0.064239549219510
0.321833925533576 -0.007133672069721 -0.064158301740658
0.308014503812608 -0.006343305640892 -0.064287438380389
0.315115498128531 -0.006371592705356 -0.064400677172863
0.318603770265236 -0.006735730269999 -0.064117027714031
0.313805336488775 -0.073940246299073 -0.063121203277990
0.315307113531183 -0.073982979716921 -0.063155924471910
0.306658450697892 -0.072891411690065 -0.062892918291430
0.307310694129439 -0.073093641828979 -0.063414764887137
0.308891693843189 -0.073421996647958 -0.063105292857791
0.309189012647931 -0.073176535485993 -0.063400320329169
0.310318397491489 -0.073434282554995 -0.063081971828171
0.311594094066372 -0.073568996712774 -0.062911540350535
0.312240041512993 -0.073498915868090 -0.062703770088525
0.313255435394993 -0.073606215090653 -0.062471915777323
0.316397146338444 -0.073732731284401 -0.062812301369372
0.317493327340269 -0.073632352921195 -0.062869242569699
0.318739126164100 -0.073518102098412 -0.063133442160758
0.319951346646440 -0.073560202673913 -0.062494037626586
0.320552745245972 -0.073504377527089 -0.063321083028396
0.321962760450753 -0.073252822818199 -0.062807146955879
0.323076008544759 -0.072923794633566 -0.062912850575477
0.304048742607264 -0.072079383350571 -0.062633685908379
0.304908724803206 -0.072222965221089 -0.063190824565346
0.306128366994894 -0.072479743411700 -0.062470581940736
0.323513388996046 -0.072461702946664 -0.063181632248970
0.324188879122439 -0.072594820818258 -0.063018579652845
0.325564463935066 -0.072188665333151 -0.062693524548964
0.301852193876678 -0.071289815595525 -0.062763085918242
0.326633252991101 -0.071705233625605 -0.062913414859048
0.327785164302153 -0.071524184703714 -0.062913975615285
0.300041869366998 -0.070227248464082 -0.062777751907434
0.328871016799861 -0.070771211198069 -0.062794064843614
0.330432650807588 -0.070132820253525 -0.062964147584649
0.297954368019297 -0.069199292263737 -0.062824508957685
0.298942924995410 -0.069842493832185 -0.063216704868798
0.330708589404120 -0.069621689421813 -0.062908947562315
0.331756052585780 -0.069437336353733 -0.062989451028634
0.295993074758821 -0.068026514717649 -0.063029010635866
0.332932778865914 -0.068635105030985 -0.063091800193889
0.334614691098603 -0.067662049045955 -0.062978373081158
0.336368212664463 -0.066243911468436 -0.062826841540643
0.337885425339803 -0.065016724397471 -0.062963745489978
0.290961122808098 -0.063914947529203 -0.062929686149048
0.291957650874851 -0.064742189508672 -0.063433269272408
0.337967474155481 -0.064541120176483 -0.063137226883942
0.338998798457370 -0.063589585362767 -0.063010276748651
0.339834157738668 -0.063048154078213 -0.062941882565424
0.289639819731653 -0.062478773198103 -0.062890299857071
0.288394542654144 -0.060997668494603 -0.063247459600358
0.341838446049817 -0.060556573062956 -0.063206174815738
0.286596797487401 -0.058777891100102 -0.062450837495576
0.285957483261286 -0.057563372157144 -0.063316941534792
0.343789942409291 -0.057269140707174 -0.062535789741319
0.285379114035970 -0.056485094715833 -0.062493054986123
0.344248885039316 -0.056455435172063 -0.063191762129908
0.284984502094613 -0.055714405827285 -0.062838167609749
0.284135670804298 -0.054115898584625 -0.062605609738220
0.345284385750965 -0.054550608542729 -0.062915201271977
0.345998842194785 -0.053792961654236 -0.063408696197211
0.283009205784166 -0.051494658939579 -0.063107398054947
0.347472351804336 -0.049441964660437 -0.062551572437303
0.347862646971762 -0.048186714348440 -0.062954530549887
0.348254356062199 -0.046926969560650 -0.063358905968218
0.281319567669976 -0.045219213757778 -0.063221937842350
0.348451740353416 -0.045090819209716 -0.062661663609675
0.348831890406717 -0.039937154251389 -0.062836417885346
0.348747039191233 -0.038948709865480 -0.063319876797229
0.347589594752600 -0.032192785257268 -0.063261049336799
0.347600208108330 -0.031697765513806 -0.062796038328276
0.347154642767956 -0.030731110104261 -0.063047213569250
0.346804022426692 -0.029551842733337 -0.063171208743080
0.346452444584747 -0.028369339569481 -0.063295201563898
0.346282635538162 -0.027800662262281 -0.062618485522048
0.283344561311951 -0.026776010964264 -0.062759852283722
0.345749411473349 -0.026665192624503 -0.063030502924538
0.345686124886779 -0.025653934750072 -0.063303459467055
0.284370648694141 -0.024733705409834 -0.062828391324591
0.344730641251775 -0.024733982436335 -0.062790218662575
0.343850369122483 -0.023064728029234 -0.062797601268889
0.344134610219035 -0.023602504722602 -0.063295117226872
0.342907692305998 -0.021403601141518 -0.062897929148810
0.287425612617126 -0.019612804420576 -0.062620820054688
0.341212568995266 -0.019306169987303 -0.063224513712488
0.340592425020362 -0.018542489866571 -0.062775112478892
0.339081862529423 -0.016682757432189 -0.063264111715273
0.339559764016698 -0.016450254660942 -0.063311543203445
0.338008943665181 -0.015711910744959 -0.063035232322034
0.338576855489289 -0.015422278461288 -0.063116252250086
0.335988339503356 -0.014035084136229 -0.062841190300547
0.336855706984832 -0.014754893547497 -0.062924498212619
0.334828240285558 -0.013072334546884 -0.062729739007218
0.335408790121303 -0.013554118630072 -0.062785497843155
0.294576799685677 -0.012456436311531 -0.062603546298700
0.333936588371858 -0.012351735055085 -0.062674369654987
0.332001042400318 -0.011232309524689 -0.063249784022988
0.332815281559600 -0.011673821630291 -0.062961724948574
0.333518838921835 -0.011328907851767 -0.062904358138929
0.297649293221563 -0.010414065635901 -0.062705825235354
0.327509466842084 -0.008890302336052 -0.063367110456973
0.328462783781050 -0.009316455670012 -0.062891720871963
0.329287311707631 -0.009763528823751 -0.062602949937020
0.325919099494615 -0.008398965797091 -0.062887930952222
0.321434612213769 -0.007032498884859 -0.062859786609243
0.323083379367640 -0.007521405359093 -0.063280201003619
0.324376422544659 -0.007571411159967 -0.062460562365723
0.317981701960148 -0.006672218865984 -0.063136130227211
0.320174638171842 -0.006223948493093 -0.063309808956031
0.314089096900840 -0.073972294130913 -0.061646549873569
0.314709843994742 -0.074036766416223 -0.062328971680748
0.315873607548582 -0.073932335696971 -0.062162202039826
0.307630038119466 -0.073195538000624 -0.061850283012661
0.309500016451556 -0.073487902366260 -0.061967635821766
0.311033694883355 -0.073649795497551 -0.061860230192484
0.312873528349978 -0.073843469217411 -0.062094817602486
0.314270025326811 -0.073713397162870 -0.062240305699177
0.315293768543573 -0.073683500344155 -0.062355219863533
0.317034954941021 -0.073826665554790 -0.061997460322304
0.318194188871942 -0.073721205224360 -0.061833000815826
0.319351309592619 -0.073615909778130 -0.061668869229004
0.320806729618662 -0.073482932471387 -0.061917138141544
0.321403115830827 -0.073089630781522 -0.061522413154088
0.305680833361475 -0.072588314784854 -0.062110732493930
0.307138192580474 -0.072794514855155 -0.061718043659701
0.322456695680688 -0.072776130894220 -0.062350807657473
0.323869359582068 -0.072690696379471 -0.061623610463024
0.324979288274962 -0.072362589835080 -0.061729287301753
0.326088849986713 -0.072034588952839 -0.061834933388062
0.303076382576141 -0.071656011504688 -0.062008987448328
0.325529918218381 -0.071866001026460 -0.062197192338235
0.327198047690791 -0.071706695009354 -0.061940550567626
0.328287794575942 -0.071260622880919 -0.062187885037318
0.299663412088707 -0.070236841818339 -0.061686721449854
0.300710613946024 -0.070805087909055 -0.062156706270977
0.329859762606331 -0.070434785794383 -0.061850648056234
0.299038937000866 -0.069685039561126 -0.061558087830932
0.331429140163601 -0.069427192783359 -0.061779295240670
0.332501716466035 -0.069046384586030 -0.061900751192788
0.295775259188549 -0.068095737403789 -0.061839989788347
0.296928467316920 -0.068643600303683 -0.061978538894350
0.333755167037891 -0.068171990592148 -0.062088896479046
0.294998202983020 -0.067360509506670 -0.062091439189318
0.334931443055573 -0.067204009318965 -0.062036908835739
0.335566363289902 -0.066893019173436 -0.061826381451581
0.293997337293975 -0.066441730865125 -0.061845225032684
0.294226223063474 -0.066805703498326 -0.061831040590163
0.293059517375141 -0.065834075859071 -0.061824302310720
0.337080117769954 -0.065668626698275 -0.061962416079898
0.291106610235738 -0.064207729114625 -0.061812964744506
0.291889212636379 -0.064859442395018 -0.061817542533646
0.338826912192700 -0.064211464147860 -0.061858181415001
0.290248270337832 -0.063290269629170 -0.062116865622922
0.340967852344175 -0.061391969585668 -0.061674663203737
0.287766479812039 -0.060169269337398 -0.061683972096398
0.342077043725553 -0.059888669424043 -0.062225879534761
0.286988522846158 -0.059152068906446 -0.062001919784141
0.343100813363253 -0.059054546485902 -0.062208298610422
0.343960210778182 -0.057542468614637 -0.061921635799573
0.344814664842272 -0.055970610128417 -0.061700846499840
0.345195796747399 -0.054975467794768 -0.061689227135204
0.284013227113541 -0.053868679188328 -0.062360197069027
0.346695952628571 -0.051938946254154 -0.061750014290106
0.347083453098668 -0.050692690823465 -0.062150080285590
0.347995901865864 -0.047001765958847 -0.061802000200075
0.348647702052947 -0.043233176894198 -0.061984683949646
0.281256445394415 -0.034902653147683 -0.061879458930078
0.348055078028565 -0.032705481297355 -0.061458663657876
0.346984643247220 -0.030161717493107 -0.062372411633436
0.346814931723310 -0.029593367818041 -0.061698854285899
0.346542940921438 -0.028409600240594 -0.061889669311801
0.346056019203010 -0.027248817334654 -0.062033954666030
0.345772841603601 -0.026713249610478 -0.061540454703532
0.345182149352305 -0.025591993706056 -0.062040159426685
0.344163237154761 -0.023660462211942 -0.061798309064574
0.343424472440178 -0.022258922742400 -0.062052122309589
0.342089043417348 -0.020388767718997 -0.062293758545936
0.342837862144308 -0.020498844601357 -0.062151385505085
0.341059361841099 -0.019120739425856 -0.061546941333049
0.341471330656996 -0.019628084385880 -0.061845752325084
0.339765136359308 -0.017523703523327 -0.062175586055084
0.338669410422342 -0.016262726001321 -0.061519345090863
0.339144327858739 -0.016759211523251 -0.061725722838193
0.331742883102029 -0.011094987178177 -0.061742991592617
0.330108811583087 -0.010208970286484 -0.062315262375910
0.330927332677479 -0.010652791410924 -0.062028620236299
0.331611920243788 -0.010295257442426 -0.062261262800810
0.299621865454465 -0.009377261987173 -0.061830849415824
0.329709583776877 -0.009264001889528 -0.061618960920351
0.325556392402763 -0.008288820738832 -0.061542180496050
0.327406766759741 -0.008512043511678 -0.061833591404511
0.304695912004751 -0.007332434868460 -0.061546676172107
0.320812908395504 -0.006969111009104 -0.061886779807496
0.322725142546231 -0.007412637034591 -0.061927142013465
0.317361031321083 -0.006608853253117 -0.062157418448056
0.313469269708343 -0.073907913993894 -0.060965135052469
0.314979104000325 -0.074012168556639 -0.060927782889261
0.316437829570063 -0.073882124567098 -0.061172272831957
0.306654609253784 -0.072893109298781 -0.061070622708434
0.308359347993978 -0.073231536378608 -0.061000603213363
0.309633113365005 -0.073366065035097 -0.060832650591028
0.310174097903693 -0.073285801912809 -0.060599344363395
0.311944020123744 -0.073746928460104 -0.061070971334756
0.317596284541289 -0.073776718236791 -0.061008771508608
0.318533218189103 -0.073540657060361 -0.060722427823415
0.319624120950603 -0.073440767751824 -0.060779745703368
0.320714495233734 -0.073340935063880 -0.060837321750818
0.321913620111848 -0.073269226934437 -0.060984463843255
0.323023312907118 -0.072941285116729 -0.061090083466665
0.304053223821298 -0.072083688885937 -0.060808483259696
0.304905153213506 -0.072226132692635 -0.060997830892586
0.306004821504538 -0.072691661772738 -0.060551229967558
0.323417338253423 -0.072494638130929 -0.060543645996762
0.324433981283951 -0.072358400545627 -0.061068571252905
0.325503862852693 -0.072208483856356 -0.060873593460793
0.326611472248833 -0.071881053677620 -0.060979215539710
0.301757328813741 -0.071333837164450 -0.060851522991569
0.304095751929388 -0.071851821555947 -0.061416264820312
0.327629119678575 -0.071413050082197 -0.061150450931963
0.301057991563846 -0.070782630114038 -0.061432718222061
0.329039096637138 -0.070866681025317 -0.061102561358911
0.329606318596492 -0.070203812340471 -0.061423673950036
0.330358651272817 -0.070173222640838 -0.061127390861551
0.297566358866917 -0.069098931841297 -0.060745520436612
0.298615394295291 -0.069668159500256 -0.061216360312039
0.331925998402480 -0.069349850617165 -0.060791532286356
