ply
format ascii 1.0
comment Exported by Aspose.3D 23.2
element vertex 408
property float x
property float y
property float z
end_header
0.46851395223792136 2.34798239 -0.10324427852350646
-0.42501839817356657 2.34798239 -0.15712066544449182
0.47834013951979515 2.3479823899999994 -0.03293355907226297
-0.43496807723330544 2.3479823900000003 -0.27254805281347516
0.46401745911272746 2.3479823900000003 0.08572178055619178
-0.3816743904526265 2.3479823899999994 -0.32839635351772906
0.47682055440691695 2.34798239 0.14323819843809743
-0.29462607299581 2.3479823899999994 -0.38358348782552754
0.3911275919168642 2.3479823900000003 0.23282866807728136
-0.2128704389970778 2.34798239 -0.4393280658784592
-0.08817989602273617 2.3479823900000003 0.45487425228295175
0.32751811259740504 2.34798239 0.31996785799342525
-0.10526986558412045 2.3479823900000003 -0.4517982897183367
-0.17787412213128392 2.3479823899999994 0.45706910653248223
0.2828794660514154 2.34798239 0.3911507622776975
-0.009770175034425335 2.3479823900000003 -0.4881315177290094
-0.2512231980527511 2.3479823899999994 0.39249641657908974
0.20787954804487757 2.3479823899999994 0.4405767785853891
0.0656053655610388 2.34798239 -0.4548171066748732
-0.3119491518412709 2.3479823900000003 0.3504818745784217
0.1108144950916097 2.3479823899999994 0.4530483012430653
0.1476928109145985 2.34798239 -0.4402407944280958
-0.37971729956471184 2.34798239 0.3225595825142238
0.01576563658937835 2.34798239 0.5025764314673914
0.2502713683359805 2.3479823899999994 -0.3931293601227044
-0.4465211732495693 2.3479823899999994 0.23749331388874928
0.3355687767403398 2.34798239 -0.35867926200662437
-0.48147927963184 2.3479823900000003 0.11462682178926337
0.35561777263265787 2.34798239 -0.28374430292956154
-0.4964493051518847 2.3479823900000003 0.030269925587542965
0.42610997330379713 2.3479823900000003 -0.24491366508476195
-0.488783415715424 2.34798239 -0.08998156583305827
-0.1915258104159277 -2.9 -0.5429566546443608
-0.22453369294673423 -2.9 -0.34690204954552584
-0.013835439559751306 -2.9 -0.4648024026918642
0.3664921880218034 -2.9 -0.2331721589345223
-0.18326718831395458 -2.9 -0.4886425208757761
-0.20164841101106737 -2.9 -0.2568461957634526
-0.007405356744077829 -2.9 -0.2521265013666447
-0.0319240850961916 -2.8999999999999995 -0.18323509922642867
-0.02620331597066833 -2.9 -0.07014680226403872
-0.07496579486850835 -2.9 -0.1687037271720367
0.10676870171972569 -2.72768388470285 0.8217783348736545
0.1913946609520668 -2.8412386019762454 0.7708197807990717
0.37880521937842376 -2.7410319217534944 0.7320302265934218
0.5422699012529011 -2.6619073768959987 0.6527788703027106
0.5706338370681785 -2.8568334724282725 0.5473910634358977
0.7791771580435447 -2.5791621724847644 0.39673636097615456
0.8240562102310541 -2.583787357467792 0.290028488256004
0.7972533624688511 -2.8032286272446667 0.11754759773938328
0.8036504174402355 -2.8009359584533997 -0.05982677860850775
0.8646991728841508 -2.5511790583708196 -0.1907672028973909
0.834718758204341 -2.4656128772317705 -0.3672786471941758
0.7245767663966642 -2.508052444873078 -0.5297455876358558
0.512701609627529 -2.579540360824371 -0.7099797086997587
0.4037567397426248 -2.606380726649689 -0.7658851469414403
0.19131742872343938 -2.8055227529620055 -0.7823793773104193
0.019431829157518735 -2.687401900678391 -0.8428911299407438
-0.019328701778316547 -2.8642283904716828 -0.7879811835926284
-0.17368469658052793 -2.7239800787360857 -0.814066460068422
-0.3664629158523607 -2.82622646473798 -0.708768686447032
-0.5523793542555004 -2.8226651882986604 -0.5802024793691443
-0.6379476443877226 -2.846396190809419 -0.4704543871014175
-0.7716583374913765 -2.596605924932351 -0.39936525140121815
-0.8298678209161897 -2.668981477518627 -0.18015665613697654
-0.7873117643777329 -2.842866987190564 -0.09348951940895862
-0.793474286796845 -2.8441161667849486 0.02698116829217083
-0.8068539997335288 -2.598805925830325 0.33074517155654604
-0.7397425847665415 -2.701818392076137 0.3900885153426425
-0.6432292584990734 -2.5778892247390512 0.5948418428078992
-0.5491448876335212 -2.674042886577418 0.6422843532377629
-0.31756461068833164 -2.85683013634881 0.7241796051183111
-0.1913752760103416 -2.825753816011711 0.7758272513398448
-0.18865654914233343 -2.237302724246875 0.9660190286686966
0.767581064572139 -1.3753340669929637 -0.6334187531425511
0.6277212221372377 -2.080971146886043 -0.7722568841908748
0.1150660754489189 0.4665289833376245 0.9375980132784566
0.19214588015529613 0.8828433069096088 0.8137563973779631
0.42264513243581714 0.3053870907448583 0.8931119529835393
0.5589512833239185 0.47287971305262094 0.7607795972921174
0.8068489652941947 0.32116603857824344 0.5659285236643918
0.7334061741695922 0.8725644290452464 0.4039050031903456
0.7788830006233141 0.9842213343390628 0.21494231031693778
0.728359997348276 1.288484413013543 0.026415344042953894
0.8367938821739284 0.8740518274093719 -0.04130847594210849
0.7300164031619841 1.142470607898582 -0.2321644077917803
0.704026918282438 1.143320974757283 -0.30728923461903385
0.7052528560708108 0.6451768931760787 -0.554935462988103
0.555133829672621 0.7897212506698582 -0.6557423893206289
0.3723758687103274 0.6145142996824422 -0.827477983292237
0.1623232679790529 1.0967678821872366 -0.7638064501908272
0.16161425918172895 0.3425375367480525 -0.965893795135554
-0.012730034449990919 1.5665562821937709 -0.6559675950519052
-0.31191128304959853 0.42266809114101056 -0.9043339947407018
-0.3301384394319312 1.482810128695105 -0.5902247333704502
-0.5138400752640846 0.8061609690051635 -0.6840187561304695
-0.5319542861571602 1.258281336153283 -0.5110496412959799
-0.760343141943625 0.7929714783292897 -0.39806889344605
-0.8108063559299398 0.9216048357657026 -0.16663160042192715
-0.927308978356796 0.48648784415759827 -0.16579302205776567
-0.6967759895973532 1.3850810612490834 0.08701161044428475
-0.7525631482726691 1.055201061078315 0.23717734069837268
-0.8326848903157413 0.4989978290931623 0.4273052719013053
-0.5487279166744198 1.3349017296495107 0.45873705941974263
-0.5543851100098215 0.9292437946610577 0.6087237240203796
-0.39116012774543396 0.899974297088431 0.7320163627331862
-0.20661512113823244 1.0265373538991853 0.7697390685027155
-0.126011691359551 0.4863711566870996 0.9312580665479809
0.7071073000000001 -0.6398895777518212 -0.7071064
0.47004088431423685 2.3479823900000003 -0.1853512131181421
-0.4786097872492444 2.34798239 -0.16218883890399222
0.48365420433804607 2.34798239 -0.06601450288689081
-0.4305066623238729 2.3479823899999994 -0.18552562028038494
0.48133998871814776 2.3479823899999994 0.033035244342549994
-0.37262013926648774 2.34798239 -0.30162173207915616
0.43976298297549166 2.34798239 0.10268343849833163
-0.3095576441659771 2.3479823900000003 -0.3608991252955093
0.43873375679075494 2.3479823900000003 0.23003857343020837
-0.2536868940419123 2.34798239 -0.42303212278705604
-0.04028778232928974 2.3479823900000003 0.4906071572487972
0.3720101706079023 2.34798239 0.3338408531237445
-0.16985656605799382 2.34798239 -0.47409466229952474
-0.12148104999851056 2.3479823899999994 0.46905350635225146
0.3077727607736254 2.34798239 0.3439056502100054
-0.050173190279532265 2.34798239 -0.47222324651018527
-0.20174272526672657 2.34798239 0.44086860142307793
0.24604260359552937 2.3479823899999994 0.40526512939713677
0.01709379759710235 2.3479823900000003 -0.5150150175501611
-0.3316526959018804 2.34798239 0.3859830834117488
0.14177336122562983 2.3479823899999994 0.47592050265861935
0.1319806921459728 2.34798239 -0.48484528045278497
-0.36371593795765966 2.34798239 0.3084477098692837
0.053890435839389 2.34798239 0.46716348634184457
0.20311184086431347 2.3479823899999994 -0.44125457914201316
-0.41244460793948345 2.3479823899999994 0.2690037578144861
0.29500152720297884 2.3479823899999994 -0.38214260491912766
-0.45460997798640335 2.3479823899999994 0.14214113698318437
0.3682884070719753 2.3479823900000003 -0.3148849874167078
-0.47260266064268364 2.3479823900000003 0.09044835411375066
0.3792347763286452 2.3479823900000003 -0.24946833650030417
-0.48990099634471407 2.3479823900000003 -0.05597274239688939
-0.11452838605734551 -2.9 0.7658147504022441
-0.255019524587761 -2.9 0.7312150772154025
-0.5568560933275651 -2.8999999999999995 0.5329735237897091
-0.549511629951708 -2.9 0.5131851338313982
-0.4640777468448333 -2.9 0.6064479752124261
-0.7652351325961348 -2.9 0.053511755095350846
-0.676185931332305 -2.9 -0.34641415993301516
-0.6841649011646365 -2.9 -0.36315208923006015
-0.40238084075839287 -2.9 -0.6079478057533387
-0.3080194254698026 -2.9 -0.6865987740679494
-0.3019012786061505 -2.9 -0.7064622858429037
0.135658359355289 -2.9 -0.7286933755129927
0.1465253818072983 -2.9 -0.7562819671022072
0.3520943802731566 -2.9 -0.6844889655446753
0.5647089421223772 -2.8999999999999995 -0.5167923557502706
0.630682716385927 -2.8999999999999995 -0.43018512731313185
0.7143735662399261 -2.9 -0.2740702670775435
0.7735001883520325 -2.8999999999999995 0.04668552304617334
0.7448226976143681 -2.9 0.12047068706571004
0.6643645009946955 -2.9 0.35947549030356407
0.4440821396528424 -2.9 0.5969915396963159
0.3192688599854483 -2.9 0.6878417550419278
0.17696869915526905 -2.9 0.7549525628030421
-0.12663516756424475 -2.9 0.7123552344773867
-0.4307405662042837 -2.9 0.6248348098483689
-0.6119242013071682 -2.9 0.35047155342489394
-0.4364842213725619 -2.9 -0.564204312707352
-0.6260866558378527 -2.8999999999999995 -0.3869543363758634
0.4720494776411457 -2.9 -0.4500175160749688
0.3042415453505755 -2.9 -0.47980200484200825
0.3605164703084517 -2.9 0.5109629355996712
0.32885061322443043 -2.9 0.6214353692288042
-0.3661378270989453 -2.8999999999999995 0.34017166337414206
-0.42180093562710996 -2.9 0.13798095670521046
-0.4444240541824309 -2.9 0.12805653871368866
0.5100145493029755 -2.9 -0.08775127759498652
-0.36658360239852833 -2.8999999999999995 0.30725504131170905
-0.3021310298856682 -2.9 0.4052172514500775
-0.1724996949300549 -2.9 0.06020655839766695
-0.2403415781761786 -2.9 0.37344131852292317
0.3021460482496423 -2.8999999999999995 0.10675775535567696
0.057220034431260954 -2.285400305404248 0.9640259481876449
0.29075964870643345 -2.3659954221120785 0.8941812598258119
0.46138145963677957 -2.502778734674673 0.7713941900228741
0.5350228063736313 -2.4669565712888097 0.7366782227228464
0.7259730763134818 -2.4517520459957582 0.5554752484726042
0.7648218961780375 -2.5265101338995164 0.45811657495951824
0.8934075424593872 -2.4681197951183607 0.18456963132838755
0.8911635093492483 -2.51628131536326 0.0689344787741543
0.8803243912819171 -2.523189052552593 -0.1572023715825994
0.9179304789045845 -2.3574184760573225 -0.2216010258405196
0.8419522411080307 -2.2725275319487177 -0.48035060548472597
0.6995625438204565 -2.4743444550241653 -0.5766489257486418
0.5598568487635986 -2.560081569263866 -0.679061055058094
0.4644021644712243 -2.5151123458545652 -0.7654567838575324
0.30950502120211165 -2.707654480835112 -0.7781389091273136
0.14339853839681513 -2.4259388122862444 -0.9118885632811882
-0.04959751681220904 -2.569919651345544 -0.8764085120339227
-0.2615222511008705 -2.4123581547534707 -0.8880750928929816
-0.4028264935061234 -2.4643007229625287 -0.8161779669820992
-0.5212848712524233 -2.562072552096303 -0.7099201831177095
-0.7178727154426362 -2.313659971863888 -0.6326272419261733
-0.80148409774244 -2.445115793728153 -0.44289622160660735
-0.8892803255840994 -2.312923108203021 -0.36342645960328873
-0.9370736105871473 -2.3611100570358796 -0.09212489745128152
-0.9227989258945946 -2.423376237056036 0.04070537910196953
-0.9390451504542465 -2.2811049063685145 0.2332533623439906
-0.8118414972838878 -2.420888094731717 0.4394048875747686
-0.7540886929544995 -2.3480649551746096 0.571735069063523
-0.5550376153733341 -2.677095004678366 0.6362279144808651
-0.44184617898652145 -2.845765849075585 0.6616275467356346
-0.25285242082022613 -2.4973775992695924 0.8632438351527614
-0.08513600562148153 -2.5289182137417 0.885642924439161
0.7736722622255302 -0.046271754303907 -0.6259965920649722
0.6844677674230193 -0.634545374915557 -0.7256861881562462
0.006612599984623942 1.97385470577271 0.5485614692470531
0.18840546639470662 0.5533450571710321 0.9057606347499524
0.2951191736555352 1.4661228221352605 0.6139365455453474
0.44032160783749646 1.2561386395857355 0.5907308198615668
0.4308028690877917 1.7922831574147318 0.4121588693150412
0.43916459227013194 2.1279532025176824 0.2515751098279956
0.49546425365911173 2.0665951809076235 0.16522865802848105
0.8245526743705573 0.8748151249226065 0.16354012331063497
0.5102295816699941 2.1128749470652357 -0.02149404248410127
0.6411312446354347 1.537804081132159 -0.16576928909827593
0.5559319425297679 1.569832349138899 -0.34557723070977725
0.594610326158034 1.2356264043450034 -0.4441273631687246
0.4733680819213594 1.4780271132554572 -0.48785712715789153
0.295010550277483 1.8185481187446837 -0.5085343723275846
0.21401960180090113 1.6223479237167484 -0.6031789544513338
0.04710379924034435 1.6004686093685419 -0.6435891108112434
-0.09496760605447088 2.1836868626645143 -0.48421484400598147
-0.17302380537180978 0.9788675618434756 -0.7930752002164393
-0.3675168179365789 1.3300455766782717 -0.6159589848628981
-0.4878909916141134 1.358130133951604 -0.5168715263611827
-0.5529228000692012 1.457384973384648 -0.4026725511940003
-0.46138801199140655 2.025529809974583 -0.2673388089758315
-0.6782000064751453 1.3167299747306023 -0.2445556164680613
-0.7086965476635418 1.3699588689832038 -0.006695641197970435
-0.5281488540584534 2.0351466289463174 0.048838789472261564
-0.6280171644020214 1.536539502813103 0.2101506936862307
-0.5618164835777573 1.7180396572591559 0.2515958732986079
-0.41732905719944197 1.8890873244603243 0.38830653570662826
-0.5169803479065503 1.1545103568903177 0.5625147105967374
-0.19758266671294927 2.2891999750781284 0.41977272177731284
-0.20305386838875722 1.803282352607199 0.5566071750936433
-0.12555619828277403 1.0983407145661757 0.76901857973857
0.142559076438636 -1.9991464185093033 0.9859592805003543
0.2827053121288233 -1.4248485624068743 0.954207564265532
0.5185596515402535 -1.0165166073182452 0.8512522923882688
0.6731484045846243 -1.8126860170917571 0.73497582058255
0.8153184195831866 -1.1734985929322743 0.5752506713615335
0.9016371196995743 -0.9972604191172938 0.4242961922136695
0.9782973606584323 -1.1168120888370392 0.20329224513496924
0.9846708521366577 -2.071286781477918 0.1556389643781674
0.980895540575148 -1.233021957733955 -0.19397115554619937
0.9500694180214195 -1.5581294020834888 -0.29634696600157157
0.8600133401275285 -1.5287405482626422 -0.5021687933370991
0.3839370186305915 -2.0255511171420526 -0.9232094935564025
0.23611196757112773 -0.9900633778679505 -0.9683415072100917
0.1187796557614772 -2.0588338628085756 -0.988301211280184
-0.10555618392647045 -0.9793825761814552 -0.9896036073554833
-0.31778064855793975 -1.0954188532905913 -0.9435675780939097
-0.4960900246762258 -1.0698880712181718 -0.8632624908572162
-0.614882014645978 -2.0546039038426263 -0.7827937413627051
-0.8232188689031001 -1.0657260012606848 -0.5656238646507799
-0.8956726849750629 -1.4583546253230197 -0.43545476817846124
-0.9747446673007524 -1.5775537947169833 -0.21500351297239514
-0.9975549168449392 -1.4910334759094497 -0.02482535567755049
-0.9874994933010497 -1.2906999087532733 0.12691988956633443
-0.9344610118249141 -1.0338878216825107 0.3478008641965792
-0.8658466052063579 -1.0056839419758625 0.4912554505358675
-0.7128428807056018 -1.742377893412611 0.7001173669178471
-0.6549348285307844 -1.490785564480049 0.7499232333571897
-0.4218789117013235 -1.4590809060465244 0.9029291204697054
-0.3137150266922175 -1.9689758638577688 0.9448008668105135
-0.037363329621830435 -1.2096658354572505 0.9963200365692986
-0.02096596411673074 2.5796232377360444 0.5154351168098675
-0.1395487747337121 2.465872379188127 0.4958503645883506
-0.24758142368645905 2.5899667369858976 0.4516264219748291
-0.3287218246137066 2.5458211763379888 0.396461827793202
-0.40684278936110363 2.385335904548081 0.31607262330478014
-0.4319596606567156 2.3842557717194857 0.28437546418037635
-0.4844942583734497 2.396147634757435 0.1769847205634328
-0.5076254456928457 2.4850349785078687 0.10025735795316112
-0.5131317791241556 2.496650809803188 -0.044350717620787995
-0.4944020035905451 2.517251215897964 -0.14432292448060652
-0.4587255240494113 2.490533459539267 -0.23429977190176143
-0.3707079234330779 2.35857019171502 -0.3601027887817124
-0.3503357874134282 2.547659882557602 -0.3787234529797689
-0.2851944551748448 2.6234834332890533 -0.43152164761278
-0.19203061694377377 2.3654967748315023 -0.4799298989892602
-0.06458349781103245 2.575362832059759 -0.5111388188979145
0.053677228450009946 2.540278999171174 -0.5122130135767743
0.1127792906020465 2.491833375713727 -0.5039705382774782
0.22502115810561032 2.6029053752794167 -0.46368487585000007
0.31963100022738933 2.6189083043348007 -0.40392209407353147
0.3715968504931201 2.365283204434474 -0.359019531800071
0.4529324668884829 2.4761227598126667 -0.24513753696228982
0.4905726218080575 2.3483576921666742 -0.1569463681199742
0.5145669016976256 2.400716753991043 -0.02977792973038295
0.5109590030194625 2.5313040443428956 0.06640919175975973
0.48906111666846264 2.4787452784691277 0.1619290814951934
0.4752258299388162 2.3739095873142633 0.2034298616174926
0.40206172633096976 2.6072833170640997 0.3218982146077692
0.34589850888642876 2.415711373902168 0.38236521569633697
0.2187483766441698 2.4672973771389155 0.46703799630782966
0.21766150903457573 2.8999999999999995 -0.3544796326524501
0.16131373680863315 2.9 -0.07372189909064422
0.027021376876190717 2.9 -0.12754436068340597
-0.38930264163258754 2.9 -0.2266203113295675
0.12792613233557332 2.4096613202771877 0.4993759872889188
0.04045361676714468 2.3917015610787553 0.513515740266825
0.06463133612534737 -0.09970021361783632 0.9936344252215049
0.2579023323605771 -0.7535181790086235 0.9617314255399056
0.43404457016708653 -0.7397289270582968 0.8964263848022153
0.581431002129054 -1.3964575673282316 0.8102461430808562
0.7584173829618884 -0.4096041060122431 0.6445846231467083
0.8449774140071028 -1.362990481474187 0.5302987244678274
0.9277738906646457 -1.2751484730603453 0.3698451466082483
0.9846161582589198 -0.1562718292423251 0.15619427524030588
0.9945150642475877 -0.11333948621984877 -0.05568891423684189
0.9734021818235317 -1.2134847682738354 -0.21942876572255565
0.8911244835337543 -0.05126762519660441 -0.4439638580425889
0.5497463670950491 -0.13062161969887173 -0.8345824734970311
0.3551075119878918 -0.9878869617748087 -0.9322445242116357
0.16325728862814076 -0.7706178416414163 -0.9839205296412743
-0.049617311013351664 -0.1850050542166554 -0.9951130968997816
-0.21149259370751017 -0.08390494888186525 -0.9758096644963066
-0.46183982689984626 -0.5378419804674727 -0.8815695884539425
-0.605959565849699 -1.1821700456446604 -0.7901162074032972
-0.7535328565035695 -0.3513294761358277 -0.6505364984554171
-0.8772940704303258 -0.5795173745615612 -0.46983876485992637
-0.9382536840822486 -0.916756534813761 -0.33529825785747847
-0.9847524963257864 -1.2872040661726565 -0.15481056385491476
-0.991419879222343 -0.04827896599966299 0.08711550721839645
-0.9698182334674329 -1.262561800212381 0.23124383810596644
-0.9103530137516376 -0.6259660420434222 0.407989708667732
-0.7929445417405077 -0.08079182908726142 0.6025132312183569
-0.6446610166131546 0.04886336606870158 0.7583547334693725
-0.47437151397504895 0.21983950189694557 0.8748712460290033
-0.3177184720992836 -0.7248387333149129 0.9435864343916122
-0.12502094453740967 -0.8740913503598636 0.9876865228922045
-0.09952599718188407 2.391699767338958 0.5076975690971758
-0.17970000197279792 2.7457721197594283 0.4836705748626481
-0.28446411683199685 2.8678715239683514 0.4319122213992634
-0.3459897837481831 2.7090172297848767 0.3822904008701784
-0.423266989268052 2.616161910874791 0.2960596793952171
-0.4692992703742375 2.6591926061845843 0.21451793371107458
-0.49391076506009424 2.719694573118316 0.14594267532595995
-0.5151236821479296 2.6586602910912034 0.024127131297483465
-0.5108129457608621 2.7132969173052532 -0.06789401693132635
-0.4883464053072939 2.548998730431753 -0.16428556622639018
-0.4439412381941817 2.855622493254973 -0.26195926973187617
-0.3799717881143718 2.746540374097589 -0.34881475229361714
-0.318011236638852 2.6257848505411596 -0.40525152832056144
-0.23526582593272302 2.7558986385715043 -0.4582090429029833
-0.14326349680438277 2.805017747717145 -0.49472322086307374
-8.654747070277641E-07 2.536163071391398 -0.5174997147573538
0.0699308906433575 2.7644612217570743 -0.510612155203628
0.15713049310881 2.8249283750858285 -0.4905167226688155
0.2786715425668129 2.46197727726532 -0.4350080419913188
0.3468312694936021 2.5446035020752733 -0.3815994144371355
0.4222395427621356 2.4391607545857124 -0.29731114171971307
0.45487185357493354 2.8392612367856214 -0.2415091938437306
0.506636986688938 2.7125292996164765 -0.10398917440842004
0.5160071353185158 2.629964818531292 -0.015154820487916505
0.5098299144746298 2.5942640279218687 0.07787280074216361
0.48142740476091644 2.7719875833344574 0.18709398369010266
0.43937708974377554 2.6440486842510817 0.2704981047453723
0.3829929654645948 2.601005834513516 0.3451334697534642
0.31461005638441225 2.596314015060613 0.40804294719394896
0.2334976893256458 2.5755911874105424 0.459154345908029
-0.10582224886190222 2.9 0.5003466645862833
0.020544039311622537 2.9 0.5091546585081219
0.06522949400538322 2.9 0.48985318581347104
0.30350644072051386 2.9 0.4092618220688821
0.44388644258551524 2.9 0.2497606620446151
0.5031583944740599 2.9 0.11430145397568348
0.5074227472366735 2.9 0.02036993575503858
0.5021305430875417 2.9 -0.08803168607162848
0.3944111763078 2.9 -0.3026494940042503
0.37587516046783903 2.9 -0.35270020674365815
0.30619074685994674 2.9 -0.4128055098847071
0.09589485952914167 2.9 -0.5002537380523812
0.03245182919324255 2.9 -0.49796392796373495
-0.04417353460292302 2.8999999999999995 -0.48535538995366034
-0.3031348042274913 2.9 -0.4119224677352127
-0.4349403166939187 2.9 -0.26358808819065704
-0.4796996173183492 2.9 0.09425822245500881
-0.485068015383214 2.9 0.12973264394225875
-0.5079670656888426 2.9 0.06953678734016941
-0.43970949507669255 2.9 0.2668603515797754
-0.2697978445120964 2.9 0.4317113176307078
0.13265326192580063 2.9 0.44154345103943243
0.2952777644615736 2.9 0.2792077840766085
-0.2689658266645029 2.9 -0.4212778661625413
-0.23292111946561472 2.8999999999999995 -0.3220496388108536
-0.38621652329765344 2.9 0.3308475128979271
-0.39624097586912177 2.9 0.12449902977567455
0.4455205855200897 2.9 -0.044277592754590964
0.008151123439320895 2.9 0.24856129695675244
0.2924516848121137 2.9 0.2689134517240308
0.3016911346674225 2.8999999999999995 0.2658557940162497
-0.07243448515325507 2.9 0.09510313137325961
0.1205252658070488 2.8092086443195883 0.5016209992890471
0.04459088104432026 2.685166125358353 0.513108252617788
