ply
format ascii 1.0
comment Exported by Aspose.3D 23.2
element vertex 486
property float x
property float y
property float z
end_header
-0.08568860114955484 1.77 0.7915604983592814
-0.20758720832882682 1.77 0.7690014240436814
-0.3171852299218878 1.77 0.7332035294601429
-0.5012642701588084 1.77 0.6185545757196991
-0.5937699045855063 1.77 0.531464514326861
-0.6982487846117797 1.77 0.38258079857774274
-0.7539789728987426 1.77 0.25710926534637657
-0.7859368021553146 1.77 0.1427858567620635
-0.7991567409390194 1.77 -0.008561786431641164
-0.7760167859225768 1.77 -0.18446045858881188
-0.7241810292530713 1.77 -0.3340649412194613
-0.649221400399986 1.77 -0.4638964928477376
-0.5388944003089886 1.77 -0.5876722839099839
-0.3807833469249722 1.77 -0.69920953917046
-0.207484656473192 1.77 -0.7690324063963977
-0.0956486317179771 1.77 -0.7905793598640511
0.09793297850027742 1.77 -0.790354345742966
0.2016094728475316 1.77 -0.7708145593991121
0.3822190290565776 1.77 -0.6984420357112514
0.47035988636802006 1.77 -0.6439170221069588
0.6249152772294981 1.77 -0.4935135299773674
0.6800962250676305 1.77 -0.41654179656460644
0.7516058350938941 1.77 -0.2649325330240022
0.7883339256177146 1.77 -0.11844744915834389
0.7936282448796392 1.77 0.06469340616463043
0.7444677493936577 1.77 0.288463418434202
0.7041827122879706 1.77 0.37147921941122525
0.6383083761642527 1.77 0.47719421584792304
0.5549327910994344 1.77 0.5745100460876573
0.4101907271243861 1.77 0.6834911276773343
0.6955983335837062 1.77 0.2075027983491614
0.2015844433472327 1.77 0.33018934086317536
0.6165545507500347 1.77 0.2167829225806666
0.24521449224939407 1.77 0.3563233298926505
0.14699600140548477 1.77 -0.2267918208303453
0.5444559667592404 1.77 0.3230634450558785
0.2275637348516862 1.77 0.27996506208205485
0.432800802359822 1.77 0.18390592044252102
0.24026170773883124 1.77 -0.21217432997172175
0.24452606791073583 1.77 0.10967861854717811
0.25889014006674654 1.77 0.753438882448858
0.0846503842532503 1.77 0.7916627929628997
0.4508565934438233 -1.77 0.3936215350611742
0.49188662204964595 -1.7699999999999998 0.33603985853669416
0.1677960037846301 1.5306342722959132 0.9187085616709463
0.33244954045320324 1.572087047810256 0.8474088791770138
0.47173886025596456 1.4869568580754318 0.8310413659305191
0.6031706920504123 1.5522425745362807 0.6933085968968011
0.7414434605009211 1.4810851367246245 0.6075836696038602
0.8386425372613742 1.5065720256551565 0.43412227355219546
0.8762311092323865 1.5796158524896753 0.2228524000775041
0.9058170090626438 1.576784120611505 0.03395791335837408
0.9421343825626459 1.5032437151930174 -0.08706688685620564
0.9414491979955512 1.4357275117549915 -0.28655379159889593
0.8623017109760469 1.4843658794681487 -0.41634506742879884
0.7208461819963514 1.5062987213138896 -0.6103352247758117
0.5826280962061238 1.4229327772989901 -0.8042212872455942
0.5127323967704748 1.4444965006229467 -0.8361994871810826
0.2092492951274582 1.533962463669704 -0.9071812162573802
0.1185072577407758 1.4981378041974844 -0.9419224820865932
-0.11677017905591286 1.5351066738243289 -0.9212072102006887
-0.24224770877620772 1.5556844502605667 -0.8844084882526609
-0.44989941031468983 1.4404010217988852 -0.8723954879392837
-0.48326989389398883 1.6488563047986475 -0.7214363344916666
-0.6114502486679575 1.6888848491122288 -0.5818117767409814
-0.6709333665792608 1.7579932128314584 -0.4480051820388756
-0.893992371798976 1.5196050491379494 -0.28053601189998545
-0.8777722617624688 1.6145006192418843 -0.10234933904035956
-0.9187181355314193 1.557497317723526 0.013604012368604779
-0.8598406619116866 1.5890679196169923 0.2585766422724628
-0.8359264049336819 1.4848446467979732 0.4651187821045752
-0.7522872506947766 1.5153057551398632 0.5640413827302541
-0.6102355729426886 1.5317365565530223 0.7024256982377552
-0.4022233280604618 1.425000136191953 0.9076973925302427
-0.18810575917555694 1.5777562781469183 0.8878640062757353
-0.05940180138485275 1.5633165944981449 0.9109197657354413
-0.03756111995133186 -1.3513085711156976 0.996300555939845
-0.08785020352379114 -0.13485905412614288 0.9913475180178175
-0.2471732133409524 -0.2918190174823147 0.9649861140487099
-0.25194740705399665 -0.1589004694157243 0.9635378775849373
-0.4129719838464797 -0.4392527670849909 0.9076899715721223
-0.44828271139997944 -0.28575874063623 0.888815998532271
-0.6327076480462399 -1.2496113032921239 0.7681646101948711
-0.5839607616048006 -0.7927143181745575 0.8081701487228128
-0.7445984506814564 -0.06229285674495052 0.661423101142418
-0.7158027813556955 -0.16391004078901736 0.69651071830437
-0.8498824178134033 -0.4004431006069288 0.5211223831876889
-0.8555887852117772 -1.5122783390968948 0.5104465068290215
-0.9515038168193057 -1.032152049145886 0.29161832003423693
-0.9310374331591316 -0.5795931839055181 0.3590868795940957
-0.9844912699735622 -0.06179641688755639 0.1574629212778098
-0.9872360295211894 -1.0458456258287165 0.1295948846405253
0.9969860732145467 -0.6978834356293016 0.03060159242683768
0.9947601001909825 -1.1127822408957169 0.05320206505665834
0.9595854430366104 -0.8826363746527365 0.26497692697544295
0.9622786472612013 -0.07559855747162146 0.256098657570731
0.8831064361221757 -0.07907698189222824 0.4589645576701775
0.8759690140099363 -0.1594132502062183 0.47231769476147584
0.8260238899454878 -1.3607959344946017 0.5622060484511033
0.7603738956943101 -1.042927092173924 0.6422006110528753
0.7038126083602106 -0.912292164770242 0.7098104272597259
0.6385772888809079 -1.5110944572633045 0.7633475249535446
0.4635969201870379 -1.2172624660983964 0.8806303804777798
0.5410889012426517 -1.5162438522194956 0.8392102001186147
0.3540625761636035 -1.0447178494283251 0.9325616910465463
0.3138526315129544 -0.06379047323139275 0.9447591789382648
0.12550264878961925 -0.7939285235321569 0.9876391771598203
0.11720098094194491 -1.4237913891233684 0.9884568128554232
0.14527026495385356 -1.6955683887014514 0.8479912240858412
0.20561287958086014 -1.5815832082028793 0.9336069003461444
0.3381145555733757 -1.7273625673332669 0.7622870655167229
0.5018675450865946 -1.6612636125172062 0.7352293662992107
0.6483036666097216 -1.6793909797778008 0.5839854207167267
0.7649929518725205 -1.6638870142891933 0.4452144665809029
0.7858397910263071 -1.7105578601966944 0.3226459100142626
0.8284704372149531 -1.7236849005249533 0.1045275093033802
0.8637574146279736 -1.6852782313854855 -0.07263885283245192
0.8123354124362374 -1.70896355365907 -0.23987646627783088
0.8289624830627073 -1.6319328149943602 -0.38199948173562553
0.7072633518093128 -1.7058992894283955 -0.47733700570734006
0.5513605281770982 -1.673833160448449 -0.6810671065122829
0.4033606254783534 -1.730701880479996 -0.7242582970728626
0.2886788985108318 -1.7668203958423756 -0.7471699758855345
0.08556020033745028 -1.7521490522402283 -0.8065141372496246
-0.06460140263190356 -1.7073866253685281 -0.8460443648416779
-0.20996655268899908 -1.5786173158129104 -0.9348679345703631
-0.4551272777042829 -1.6883032515553293 -0.7366336314450435
-0.5572570372102731 -1.674420087107444 -0.6755955794482085
-0.6652491985599738 -1.7059901537199345 -0.5284122848560051
-0.7301242616492216 -1.7265335092346497 -0.39975188569397213
-0.8435777400113587 -1.6886019019338339 -0.1953118270538679
-0.8803433948481055 -1.6670962617827667 -0.05875259200298358
-0.8791449495831525 -1.6614988692862807 0.11848796508734619
-0.8283195468414937 -1.6716990848003512 0.29411348802178416
-0.719792626572263 -1.7395347600999078 0.3961076753890143
-0.6477407681230909 -1.6785022621902947 0.5858383275372884
-0.5317245875797361 -1.7181520308803475 0.6494257676242031
-0.3539579149384257 -1.7437206197890884 0.7383686921270858
-0.2057115924763563 -1.696277355446003 0.8337419863009444
-0.08450058161253038 -1.7478496374974808 0.8102172634485902
0.241278203694355 1.7071486838310366 -0.75878116353344
0.20805551188162982 1.7196045478993514 0.7688592857941791
-0.5599606976676482 1.7680055954156872 0.5703837184092966
0.11408778185221899 1.7287273671579904 -0.7887632330085033
0.3428234086080339 1.7058439810942851 0.7194995757457865
-0.39362910999424705 1.7148104676634766 0.6923433770338481
-0.004684921939021094 1.6689198049085776 -0.7995384547277297
0.45753656408614873 1.6967187110483288 0.6544409053082523
-0.2782198103025439 1.7574609985090546 0.7475752593600565
-0.19661933004029725 1.693542364411266 -0.7723283597608555
0.5757754878680083 1.6049765650283216 0.5533905701550146
-0.10826589019846086 1.7158664203081615 0.7893368265622873
-0.3325476305367334 1.700885328604304 -0.7249920592641463
0.6656439272966711 1.7118844005067244 0.4435799885731166
-0.45828709301702264 1.6293213682621959 -0.6538249811924881
0.7536489030088344 1.642677058056304 0.2581972763570255
-0.5740059439153429 1.6500468297841575 -0.555546898001348
0.7865414050292134 1.7569344225662098 0.13664625460959068
-0.6848363034231172 1.6615353938626263 -0.40767371404136965
0.7930909696130067 1.7124841738720211 -0.07014811010451003
-0.7483598303229444 1.7102093740162054 -0.2756332263481566
0.7758940526639477 1.666865399976371 -0.18486460161713514
-0.7895223213551027 1.7579733041715502 -0.10638207285038508
0.7288556255487557 1.6492594002888732 -0.3253192905710073
-0.7949673846273486 1.7111225460022959 0.05109696978425897
0.6586787915818051 1.6563962639121024 -0.45237248707242234
-0.7686544687594756 1.7518290555890756 0.2087306370102334
0.5577947374181548 1.6613871158963682 -0.5721610332089093
-0.7239089917333744 1.7558900872577472 0.3345739182137194
0.3856717461621442 1.6561831339184923 -0.696596519169146
0.039025270103059104 1.7038697859751535 0.7961564593369929
-0.6276696254089797 1.7464793580033717 0.4901575371007111
-0.08035958934741119 1.7699999999999998 0.7920853608981187
-0.29253178527554324 1.77 0.7432337693943675
-0.4430973121447409 1.77 0.665902041531115
-0.5285895157385259 1.77 0.5961293522153548
-0.6187093347198745 1.77 0.5010756955528677
-0.7119270299559416 1.77 0.35699059641314984
-0.7655822388060447 1.77 0.218858422298763
-0.7987653910144379 1.77 0.012535178962605314
-0.7848048543465159 1.77 -0.15427950662224177
-0.7510798051234213 1.77 -0.2666666707234137
-0.6680327484180028 1.77 -0.43911094068053036
-0.6033825746501348 1.77 -0.519751328384066
-0.464098898065731 1.77 -0.6490553567878476
-0.33405652170668054 1.77 -0.7241855403644326
-0.211804984365001 1.77 -0.7677218521909152
-0.0746910116965336 1.77 -0.7926434940599817
0.08279067515613828 1.77 -0.7918457357125668
0.2725316076639933 1.77 -0.7493005329690634
0.42906732249683444 1.77 -0.6734010903137819
0.5636723310067778 1.77 -0.5673374127048764
0.6290413700129385 1.77 -0.4884858613981425
0.7193240258737665 1.77 -0.34315167570906646
0.7794635101135077 1.77 -0.17309761734145584
0.7930358371633868 1.77 -0.0707078830776168
0.7910551508834057 1.77 0.09081808885158196
0.7434349362394312 1.77 0.2918681397769886
0.6901237637217894 1.77 0.39778157962984584
0.6028177891132327 1.77 0.5204395131496409
0.4649988623944045 1.7699999999999998 0.6483167675071245
0.3688975504831598 1.77 0.7055627083697751
-0.12738162739582978 1.77 0.7747256184209432
0.17064299110562833 1.77 0.771050690052564
0.48941832735304575 1.7699999999999998 0.6190953546257931
0.6825167917519883 1.77 0.3938768424939446
0.7671299868702675 1.77 0.1819677908498139
0.7899892296470051 1.77 -0.09471582092397467
0.7538541984671077 1.77 0.1501210268330073
0.6232127633567199 1.77 -0.4843512374078959
0.48998478672510654 1.77 -0.6217257357585325
0.34002146463286187 1.77 -0.7056311199889543
0.1263090742157631 1.77 -0.7792403296747272
-0.20179603643807514 1.77 -0.7603677476924571
-0.468868274599583 1.77 -0.5902461406914451
-0.6027458783835227 1.77 -0.49289098918028273
-0.6732489162166021 1.77 -0.4085379656173459
-0.7901776426562939 1.77 -0.05943135452037848
-0.7642960967586365 1.77 -0.09155979213074666
-0.7599085514235786 1.77 0.12148652582057176
-0.6164368825290143 1.77 0.4916551833447618
-0.6677888845267101 1.77 0.39556828309560443
-0.3777734798307666 1.77 0.6970284801565023
0.055353430038480866 1.77 0.6806086013213724
0.3704157803187168 1.77 0.6042814763994908
0.6795762406716158 1.77 0.38081407655205196
-0.1759968492255677 1.77 -0.6745796814847814
-0.3302333771121144 1.77 -0.6236084724819781
0.6881701637456807 1.77 -0.053813652014499766
0.726383603727399 1.77 -0.14995119833039036
-0.30164477585226773 1.77 -0.30851626829705064
-0.2528490464954557 1.77 -0.4390750624848567
-0.22779258371213884 1.77 -0.43786833543176773
-0.16881413658355068 1.77 -0.41182888149960295
-0.6537617132742808 1.7699999999999998 0.03286571756280874
-0.10448301727016238 1.77 0.08368608824604828
-0.0618495527990183 1.77 -0.20291465147564247
-0.2923646312552365 1.77 0.38376384517272194
-0.14933417245472058 1.77 -0.26559853077690376
-0.00290358111773642 1.77 -0.40809152896802303
-0.14891305757603002 1.77 -0.14300452432280114
0.11291595189367772 1.77 -0.29696635439080943
0.1820671316058965 1.77 0.7767427172355195
0.06275701353657853 1.77 0.7938190945007152
-0.01588806902998304 -1.77 0.7870083963805141
-0.3601088635845112 -1.77 0.7022434034368688
-0.5299427115644468 -1.77 0.5888443330315588
-0.6137439213199958 -1.77 0.47470412492815395
-0.6172532716535822 -1.7699999999999998 0.4267512194284858
-0.7908745312131688 -1.7699999999999998 -0.0039626865753662616
-0.7691545712173855 -1.77 -0.01405745416558142
-0.7089968220128495 -1.7699999999999998 -0.24107011169874212
-0.3777729322267934 -1.77 -0.6621087624945075
-0.2361115246296263 -1.7699999999999998 -0.7471393605551804
-0.34035239046350607 -1.77 -0.7172325973313891
0.16598930361393605 -1.77 -0.7344256390970956
0.26642345931632255 -1.77 -0.7281939407640756
0.29018788928307654 -1.77 -0.7422482058406363
0.5781150599211136 -1.7699999999999998 -0.5338825141025112
0.707342954167308 -1.77 -0.36458918216452635
0.7883893364527335 -1.77 0.1144853345886362
0.7637674784399899 -1.77 0.1714688568773788
0.6865745074694596 -1.77 0.33782966780762447
0.3988031984025553 -1.77 0.6246747133376593
0.32525212320285146 -1.77 0.6977604087013771
0.24681080441782638 -1.77 0.748967348816557
-0.39977282946453613 -1.77 0.6796091850396363
0.5969545585263125 -1.77 -0.4721081336171895
-0.06826817950720207 -1.77 0.26936169958682876
-0.11140692100740722 -1.77 -0.4728203401510411
-0.08679576453639459 -1.77 0.18458662787231145
-0.29546138051592563 -1.7699999999999998 0.45152104692759754
-0.15147421507535236 -1.77 -0.40302699069235226
-0.18649999911375487 -1.77 0.5175375854392814
-0.16032751709320006 -1.77 0.6364127017526454
-0.7307610738432265 -1.77 0.1283171804242289
-0.3854907511133405 -1.77 -0.09041686722033992
-0.4230264741041351 -1.77 0.08217990099184042
-0.7288814501116536 -1.77 0.12067092653361242
-0.6258594858546017 -1.7699999999999998 0.2644380268267076
-0.522861717550375 -1.77 -0.4967144901680196
-0.5629814938803465 -1.77 -0.4450516219478825
0.19799581177669384 -1.77 0.3704126704935282
0.10306898665858032 -1.77 0.5105568590981581
0.28922932756671726 -1.77 -0.3801009932996203
0.2057050099934377 -1.77 0.19586726481228767
0.3123227757363074 -1.77 -0.15950851690911122
0.15303986190514285 -1.7699999999999998 0.5200724970539765
0.2369226681253209 -1.77 -0.05665259549353929
0.3622223559619015 -1.77 0.05748682784049286
0.5232954075751117 -1.77 0.20746455281014062
0.29273657195888203 -1.77 0.29361239522073024
0.4154062545019651 -1.77 0.361949122175503
0.6267958088948845 -1.7699999999999998 -0.35334931566417394
0.04991093761627264 1.719592375634794 0.8235631878637325
0.21691672120489727 1.6079476620585669 0.8613852451620653
0.3674820739011934 1.7404015190867779 0.7251891913047983
0.48083865489647054 1.6836283447588902 0.6981399955492081
0.6194146941325824 1.6386249215468798 0.6166513477238138
0.7720477973510194 1.5921033746465372 0.45669592804455267
0.7867867087314215 1.720316864181492 0.24518767455424828
0.8584041762025406 1.6475466843831947 0.10943546359432971
0.8563007010475724 1.6686445646953834 -0.009769140903745444
0.7881374027513345 1.7618737242585485 -0.16024330423934663
0.8335512467382398 1.5682306371289279 -0.3701049373718252
0.7600405819283835 1.5622887055296806 -0.5129536175847547
0.6482773024386144 1.4987183775262147 -0.6952214743560646
0.33686525926042876 1.6909758286865748 -0.7730644486474113
0.28432394314445186 1.575685344396458 -0.859893184342895
0.0003064908013707579 1.6028445254674153 -0.8944079091189936
-0.028321900937129357 1.5460061713424595 -0.9237606714625384
-0.17727751248696308 1.6232575796773168 -0.8644142788170155
-0.4300184076949857 1.604520421291712 -0.7783910698458476
-0.5370924918300917 1.7459957696491322 -0.60661061268284
-0.7070551198926728 1.6384171771362332 -0.5100454309417792
-0.7748938123936493 1.6730962450607991 -0.3547684712995794
-0.8434144111594107 1.6522414810666406 -0.1903662294578803
-0.8225664714460471 1.7237531625106108 -0.03616253951226511
-0.8738803713075505 1.6205589944748937 0.10711167796358614
-0.8072472599053043 1.6850246928372972 0.24609557010152933
-0.8574155638564923 1.5159254341348987 0.3878441763883038
-0.6574951193816629 1.6569346355137067 0.554022830576525
-0.47944728538281006 1.7364903018153568 0.6608326538785848
-0.5302598475059944 1.4827109772865414 0.8024680713482164
-0.2514682082446955 1.7464368523251055 0.7695348130600899
-0.10940934831567832 1.7596133751799719 0.795092353552092
-0.12298832644216699 1.1191308224921293 0.9878867181193105
-0.19004236465019453 -0.26665640978399796 0.9812824777857019
-0.30366280495285103 1.2761904738906582 0.9478501762729887
-0.3409293742062892 1.117681715296314 0.9365454811314681
-0.5296029692305472 0.32627338760054214 0.8453494244844144
-0.5195725612334177 1.3326320736750734 0.8507107881048523
-0.6901397776827831 -0.5938362347809234 0.7210312763012976
-0.6599076158492333 1.0324723119880022 0.7458421719975384
-0.776697596768545 -0.17956012410355243 0.6223101867528315
-0.802832915325169 0.40556063144641846 0.5904642156956457
-0.9183138706636519 1.148960346388715 0.3930959736225742
-0.8977564140082193 1.2306737218117108 0.4315563197903665
-0.9528063632038429 1.2585236809754154 0.28732440422654915
-0.9692058060068931 -0.2890361159829788 0.23326273891832294
-0.998202290673248 -0.8092344463918963 0.018252465657484337
-0.9986955850647251 -0.5030927326923942 0.01324395910668692
0.9887179016957645 0.6764539059487001 0.11454896381487795
0.988058317996588 0.006867230655511319 0.12124576704766957
0.9464923695861915 0.3055917220541391 0.3081388351467974
0.9469982212501663 1.29452394812857 0.3064712722822421
0.8646044845707324 1.0819536412882438 0.49357916944987346
0.8345229287058757 -1.2938568462687172 0.5498576314864914
0.7583398721389105 0.0360055004874855 0.6446790701371726
0.7438690080903865 0.4623090287943985 0.6623118278127091
0.6031251879853643 -0.1081439189068315 0.7924422332227059
0.5729635052164082 -0.6093572082870947 0.8171952193336101
0.45471770147578583 -0.10515073230302481 0.885376404975522
0.458769996728779 0.799105015175849 0.8832104156955847
0.2169879238874597 1.3823629860466111 0.9741426090489488
0.27216324341463843 1.3555489839613286 0.9574054486847253
0.09671095073671206 0.6786626595079215 0.9904748868626212
0.04674176234370405 1.1778182170618312 0.9953963788880916
0.025267694686557964 -1.5909313889237031 0.9473910730144558
0.3308563361404288 -1.532507479364294 0.9383326864981055
0.4613111544213163 -1.650245641505908 0.7692734011534541
0.685986897918348 -1.5312511140137015 0.724223048501269
0.7140306056517801 -1.5537214634866294 0.668902334450983
0.8545729595365156 -1.563083594487994 0.45574336221636114
0.9181041806952175 -1.5520765522561524 0.34138726512807477
0.9584904954361279 -1.5722772676578691 0.07109889581784232
0.9263496091181463 -1.6072320275362646 -0.10037897929505375
0.8938811702229421 -1.6005502542192307 -0.2821458022985202
0.7663960168755567 -1.637651154709142 -0.48894884429523156
0.7247025465815213 -1.5767792518506856 -0.6256235919095245
0.5823229148440603 -1.7145141477191264 -0.6118206695682946
0.4514241838716099 -1.5768033155853747 -0.8439234370556743
0.29206847655103596 -1.6640466930279754 -0.8356008250333642
0.14045542873596348 -1.5682802917743544 -0.9550048628440774
-0.046347850146534045 -1.615994152831851 -0.9243373261288294
-0.2906252264042941 -1.6247866419097645 -0.870212502017321
-0.37509922143951846 -1.6504366662052559 -0.8151740921524286
-0.5925367605829907 -1.5571727074039814 -0.772983410940004
-0.6853995429997574 -1.6583128660984425 -0.5664598688359779
-0.7953772175403536 -1.5995177040206254 -0.502111214856247
-0.8509503696226512 -1.6562934114081607 -0.2637160116121797
-0.9216250228808801 -1.6057955199557132 -0.1605567701384448
-0.9780877572663347 -1.5503428411861728 0.05852661989440528
-0.8737196340713917 -1.6542511127295416 0.19451608666808878
-0.8490929257520933 -1.5919115771911758 0.4150562809867428
-0.7889720190570592 -1.5729284041914369 0.5523671837614921
-0.6817840127472221 -1.5657322765312176 0.6905166329394903
-0.4709298236362878 -1.5757924198239057 0.834452286608675
-0.2954018052516971 -1.6242516951332433 0.86922921738308
-0.019243268937089497 -1.5474070350632236 0.9844140903825094
0.17778619090110515 1.6178288678682438 -0.7780412837323868
0.1966889150385683 1.6237418899134657 0.7723072800894335
-0.5125988291308038 1.6310360825384427 0.6092525543516334
0.023369166920435086 1.5800645453053377 -0.7976982561067361
0.41830010505009696 1.6348340352724016 0.6791565909860079
-0.32107310875709816 1.5876860783243225 0.731125412524277
-0.1123970129326515 1.666062417296223 -0.7889297973049891
0.5339792069138884 1.6647867692085458 0.5917061741006379
-0.264353326897512 1.615381114382177 0.7517816109415758
-0.25147794949989066 1.605084104940502 -0.7556872167179782
0.6346919455283627 1.5767157610586093 0.4816008383079933
-0.07644216883484431 1.6023438342246743 0.7924711936476525
-0.34693408870428044 1.5956747454655806 -0.7173023393935777
0.7008267086264826 1.5844390948980491 0.377757840944261
-0.539408262088801 1.5965768029384153 -0.5872505685108844
0.7702015402668658 1.5796556977389755 0.20363066174604633
-0.657469850167145 1.6346101345543387 -0.45384571607416746
0.799975080129447 1.6605470643115592 0.0002538430231604921
-0.6870040637365241 1.6288631528151487 -0.40361812150448034
0.7888234875622185 1.5984077640978318 -0.11347681579706012
-0.7746858065611153 1.659852009795798 -0.18884810970890234
0.7529583678176391 1.613260779412413 -0.2604738074284327
-0.7994028854870081 1.6367472332574577 -0.006062553704735361
0.6991837062793995 1.657817890462737 -0.38083159807852524
-0.7896151297626979 1.6102363540922784 0.1054392577662563
0.6411466828621577 1.5847572829492618 -0.47373546574587594
-0.7631706631228228 1.6446207545417937 0.22680832224015005
0.49383792321921655 1.6479903557134088 -0.6246490788165143
-0.7136380142423896 1.5748443779299555 0.35378956933043737
0.36672202443798674 1.5976069653815088 -0.7067253608439659
0.1111182949416942 1.6327311914102731 0.7890559400822333
-0.6458236506494345 1.5803290684760944 0.4680367676974669
-0.9972413473601732 -1.3987841676346549 -0.028009081340553424
-0.9966994130230817 -0.5484472768097796 -0.03351143517434077
-0.9757843017425765 -0.9796190176073055 -0.21157629482362336
-0.9629528186468836 -0.11117950461448553 -0.25387605902156174
-0.8745278470539464 -0.516447752476131 -0.475014008900335
-0.8928157848323723 -0.12743074916173 -0.44079965665122584
-0.7743490500042749 -0.6083734582515592 -0.6251718986588621
-0.753135999131864 -0.5658133457912905 -0.6510200704595533
-0.6705763676328607 -0.8830361861600226 -0.7370865574145872
-0.6857648557385425 -1.1268200361554954 -0.7246216847208741
-0.43471528393066106 -0.8624660891733763 -0.8960679472268056
-0.5289867245999067 -0.4489596149722882 -0.845678852361313
-0.26994496787421884 -1.2181040560938035 -0.9580783540403919
-0.28006665414018633 -0.6518853798669753 -0.9550079781304697
-0.06657940618891284 -0.7027023478931255 -0.9934424789349847
-0.09265938889929827 -0.6843477365280471 -0.9908738288250419
0.0678491348313956 -0.8936955049083924 -0.9933174494097483
0.13474690568228145 -0.784376256903721 -0.986728568267422
0.25413969205299336 -0.8437150922507669 -0.9628728447714074
0.2599538388133872 -0.672434896638993 -0.9611091387621687
0.3975921684512088 -0.47651125932289257 -0.9159106575844067
0.47697494673245805 -0.43017517348428697 -0.8734796417927427
0.6001093366409127 -0.9223648553228073 -0.7949173777930205
0.5630350519669388 -0.4967992920927631 -0.8253434633557224
0.7456366565467518 -0.9383977529710849 -0.6601581466714848
0.7191759615621722 -0.1234192436044117 -0.6924006630985944
0.8346467053225192 -0.13719011214062013 -0.549626494206093
0.8580882196107189 -0.5130856765486653 -0.505770445441361
0.9684834037778971 -0.9590386850397055 -0.23564378591245883
0.9256366053028728 -0.4691847496736952 -0.3768915845443066
0.9818743506855429 -0.21765979790852288 -0.1840329325259556
0.9816000643617344 -0.9922116875540706 -0.18681782483503195
-0.9862957696459589 -0.16618956532943086 -0.13914144069987888
-0.9875230025806252 0.4689936887168976 -0.12668113069396392
-0.9470609234420576 -0.03682563638417219 -0.3062646578148016
-0.9494807407267849 0.5031887188255217 -0.2982875830072589
-0.839205888766468 0.08855330998997854 -0.5410967973272403
-0.8662568641263679 0.4342278330478136 -0.49048794186965927
-0.7106176743431971 0.24554898316234153 -0.7028287881411955
-0.7612635064764203 0.24920559957932417 -0.6411166762039586
-0.5902196362376769 0.7575793772731045 -0.803033636541518
-0.5952994238763992 0.7234196834257527 -0.798864761681348
-0.45989796758937035 1.0805139784349567 -0.8826075330564261
-0.4174800452591911 0.12033766698188106 -0.9052803669191402
-0.2680986238843871 0.3392841540520983 -0.958638435627476
-0.25626049609401247 1.2573541824148273 -0.9622294876943992
-0.015591651597635378 -0.8066095329583721 -0.9984643266444335
-0.04579587499048303 -0.8249771052780033 -0.9954894749123471
0.16394880529831699 1.1590143204404342 -0.9838524209271905
0.15790925327072697 -0.8464277308804108 -0.9844472672121495
0.3776284931166018 -0.6958082290435349 -0.9254128442786091
0.3453619023348823 0.8013666611341471 -0.9352008290689182
0.543444738451413 0.6118523494922363 -0.8379507671027802
0.5480104624028497 -0.02974956911142247 -0.8355103346906336
0.6856092611923511 -0.7461612774818573 -0.7247493882314356
0.6422521280495904 0.9617448713993422 -0.7603316753707788
0.820035367960697 1.3897775548994797 -0.5695028681038627
0.8029071634571651 -0.37556025683534044 -0.5903736885941736
0.9079931046408312 -0.3513453096329555 -0.4124048443726335
0.9123707028754003 -0.552420085151119 -0.40421492288175453
0.9543776179266121 1.1287386921264133 -0.2821446044188321
0.9659266580035842 1.3390902045056465 -0.24407229691295954
0.9987251515834242 -0.879707468500739 -0.012942864415063756
0.9929031287412825 1.0846673306568557 -0.0720552051662042
